ply
format ascii 1.0
element vertex 1082
property float x
property float y
property float z
property uchar blue
property uchar green
property uchar red
end_header
-129.534626 -25.172484 122.280288 192 144 131
-129.422879 -29.550332 124.543440 190 144 127
-129.805589 -20.737456 122.439218 122 89 74
-125.960422 -49.064338 125.200951 100 113 119
-128.581941 -33.077928 125.426042 189 146 129
-114.915001 -1.967041 88.446259 251 250 253
-128.221011 -36.378446 126.905560 141 107 95
-126.388097 -43.201637 125.561845 104 113 117
47.213468 35.902816 -308.510327 139 91 70
-123.690546 -76.596475 136.231291 53 37 42
-131.361783 -95.025188 162.063277 121 74 55
-126.972508 -34.834999 127.805817 146 111 102
22.668499 16.844521 -244.025016 185 141 123
-128.042805 -23.664075 126.183426 70 64 83
-123.032165 -50.216085 125.678813 85 98 103
-130.717182 -93.902457 162.766385 124 72 55
-124.017680 -40.587384 125.418079 35 31 44
-124.385142 -65.917420 136.659360 195 152 131
-124.385142 -65.917420 136.659360 195 152 131
-126.132238 -36.969969 129.215956 53 27 25
-172.302520 -22.908811 234.128547 118 85 75
-130.470014 -102.073383 166.497779 43 23 18
-122.980559 -53.199512 128.879225 110 69 78
-122.980559 -53.199512 128.879225 110 69 78
-130.314147 -94.482207 163.202286 176 132 117
-130.357301 -93.015462 162.807882 159 115 97
-62.491339 -4.730444 -34.801334 43 105 96
-128.491628 -31.582767 134.862018 158 116 103
-123.418450 -45.699033 128.354120 47 47 58
-125.055647 -25.640652 125.417066 205 155 137
-124.970901 -30.711082 127.261889 208 163 142
-121.818995 -51.401681 128.150856 54 30 32
-125.125170 -34.547499 129.224312 188 144 125
-124.890077 -37.201178 129.804695 153 116 101
-124.890077 -37.201178 129.804695 153 116 101
-123.451102 -56.693321 134.651732 213 168 149
-123.451102 -56.693321 134.651732 213 168 149
-20.431209 -6.917479 -134.065926 181 137 117
44.284582 34.112319 -308.494258 205 159 141
-121.552002 -52.010614 128.210747 190 146 129
-122.900033 -39.944765 127.071166 111 83 76
-123.001373 -42.838186 128.560042 165 125 108
-122.020090 -45.413068 128.933704 47 48 57
-122.020090 -45.413068 128.933704 47 48 57
42.515773 36.966148 -307.792497 144 95 73
-124.938393 -25.410691 128.358388 207 159 140
-121.463108 -49.806869 130.032063 43 35 37
-122.443700 -57.981533 136.011493 131 82 58
43.154088 32.540488 -307.844496 142 93 71
-122.012758 -49.202618 131.372118 107 104 106
-124.220264 -34.014401 130.714226 182 138 120
-120.766032 -52.863491 131.062543 105 65 80
-123.704875 -35.596147 131.244373 178 136 122
-123.704875 -35.596147 131.244373 178 136 122
-123.835337 -29.166219 129.851198 52 34 29
-130.936444 -97.354513 176.537287 32 19 15
-121.247935 -40.206271 128.267586 38 35 45
-120.126748 -50.505918 129.906762 82 84 90
41.870511 33.372757 -307.507205 190 143 127
-121.688557 -56.443197 136.576223 190 146 125
-121.688557 -56.443197 136.576223 190 146 125
-123.554599 -27.803099 129.502809 172 136 114
-121.117675 -27.017036 123.704648 70 35 29
-121.013880 -43.009582 130.169344 98 111 117
-121.013880 -43.009582 130.169344 98 111 117
-121.247411 -58.764201 137.647259 135 84 64
-116.243494 -54.857117 124.463940 135 84 64
-109.569466 -19.953333 93.182355 93 69 78
-119.892645 -49.747264 131.913543 57 52 65
-120.227134 -65.154421 139.483380 191 146 128
41.320211 32.159632 -308.090472 143 92 72
40.825596 34.081146 -307.678676 141 94 72
40.825596 34.081146 -307.678676 141 94 72
-121.140516 -54.616916 137.266934 134 84 62
-120.939684 -60.747373 139.383447 133 83 62
-120.827734 -57.670420 137.842071 133 83 61
-120.714331 -54.358971 136.210406 134 84 62
-122.724581 -35.199559 133.066404 42 25 25
-122.550786 -23.349045 128.001022 174 136 117
-122.550786 -23.349045 128.001022 174 136 117
-109.793639 -17.016518 94.103903 197 150 131
-122.841513 -19.837327 128.507996 204 161 142
-119.373822 -49.683061 133.278167 103 104 107
-107.461774 -52.535379 106.770158 188 145 129
-119.650638 -41.448599 130.542421 46 43 56
-121.800089 -32.420668 132.276034 168 131 119
-123.060024 -19.329461 129.903328 126 90 77
-123.060024 -19.329461 129.903328 126 90 77
-122.906780 -19.856495 129.878104 145 101 86
-121.549582 -34.027541 133.234549 55 26 23
-121.672308 -28.038362 131.034839 189 145 129
-112.834692 -17.141812 103.872323 168 128 112
-122.719669 -21.689004 131.302822 120 95 86
-122.719669 -21.689004 131.302822 120 95 86
-123.284411 -21.067803 132.663643 102 70 64
-122.313344 -18.255092 129.266381 115 82 73
-117.861116 -49.705788 132.243717 77 56 66
-121.931314 -20.753257 131.859064 139 110 111
-117.450190 -48.571911 134.072912 94 93 96
-118.185294 -41.056749 132.792211 105 125 130
-117.833018 -44.885805 133.677876 47 52 52
-121.047592 -19.229567 130.813384 104 75 74
-121.047592 -19.229567 130.813384 104 75 74
-118.721378 -34.335092 131.735849 68 62 69
-117.043006 -42.666352 134.355044 131 118 115
-113.407719 -51.986617 129.874289 162 122 110
-117.288518 -35.785612 132.918286 36 39 48
-115.809119 -45.414042 133.696270 209 164 146
-116.050911 -42.585060 133.709121 71 72 75
-115.374815 -48.625597 134.730065 174 134 119
-115.636826 -44.346806 134.605837 106 76 69
-115.636826 -44.346806 134.605837 106 76 69
-115.182793 -48.935732 135.900521 84 51 47
-114.737964 -42.484656 132.123780 203 164 148
-115.605569 -43.607542 135.312939 66 52 59
-113.658059 -75.282508 145.924485 49 35 41
-115.224266 -36.083227 132.574069 99 92 94
-115.171862 -47.146511 137.656140 67 44 41
-115.171862 -47.146511 137.656140 67 44 41
-115.268445 -44.590619 137.108135 43 42 44
-115.689623 -40.271568 136.290610 50 40 44
-114.672542 -46.353868 137.840211 132 99 113
-172.111464 -163.562334 351.794982 112 74 69
-113.743424 -43.717986 139.061487 90 54 59
-105.550134 -15.585925 103.978169 132 96 86
-59.552217 -4.206005 -30.964637 15 10 7
-111.293793 -70.029026 147.934508 81 76 86
-113.536465 -35.547456 137.565398 100 94 96
-111.245286 -72.057688 149.904239 148 109 99
-102.832878 -10.221512 99.534154 32 37 46
-102.252722 -9.759815 99.590242 70 88 93
-109.069598 -71.014988 150.633585 108 67 54
-110.837269 -44.015220 143.170249 126 82 70
-112.055671 -26.594272 138.679719 116 78 67
-101.927531 -10.041980 100.408471 35 42 51
-101.508546 -10.543372 100.604689 72 88 99
-102.977598 -11.152312 106.341279 29 27 42
-95.610553 -85.324460 123.441482 112 74 69
-110.226285 -17.809212 134.946346 36 32 51
-106.209850 -18.380910 125.989902 162 130 120
-107.295001 -50.085169 149.489129 101 77 86
-111.362398 6.983530 132.202196 86 59 52
-110.273349 -4.746623 135.673845 73 51 46
-109.067571 -16.566375 139.352548 77 57 68
-107.419634 -37.631205 146.193516 107 84 93
-109.127164 -14.157958 139.379537 121 83 71
-104.576182 -69.877046 156.607974 76 53 60
-99.514449 -11.989998 110.291076 133 100 92
-108.174849 -26.450512 146.077251 170 134 121
-108.174849 -26.450512 146.077251 170 134 121
-107.759380 -28.403258 148.578990 64 41 34
-105.885255 -37.976918 147.914052 164 130 117
-105.885255 -37.976918 147.914052 164 130 117
-104.131126 -69.004762 159.945679 162 119 99
-105.982721 -39.023194 149.187994 101 78 83
-108.170533 -19.195099 145.474815 69 46 39
-105.591917 -40.139723 149.800575 116 90 89
-105.310404 -41.160175 150.459969 95 74 83
-103.100729 -70.107424 161.429358 92 67 68
-155.480671 -50.740981 323.042607 43 24 21
-108.104694 -3.109479 140.067363 146 105 92
-109.579933 0.980354 142.723691 56 40 40
-104.628146 -52.546144 157.391453 134 85 63
-29.040256 -10.656268 -94.800073 40 22 22
-104.666102 -40.979874 151.604009 134 92 80
-104.666102 -40.979874 151.604009 134 92 80
-106.990266 -2.185765 138.421321 160 123 110
-107.150030 -4.639999 140.831566 125 82 70
-104.356754 -38.172463 151.515627 129 88 76
-102.909899 -63.646472 161.671996 205 159 141
-104.025710 -43.683410 153.954387 129 85 74
-103.833032 -51.569587 158.689892 214 169 146
-106.589592 -5.500776 142.077732 126 82 74
-103.414857 -42.906475 153.915370 186 142 125
-19.080278 -6.608911 -151.886618 179 133 114
-103.690851 -38.705206 152.790987 186 143 125
-104.731476 -35.008770 154.141164 168 130 115
-106.377971 -2.081274 141.122973 110 73 66
-106.377971 -2.081274 141.122973 110 73 66
-96.196204 -77.788907 152.411532 109 79 60
-57.578444 4.701097 -27.532071 104 74 70
-102.724719 -52.540547 160.164106 134 83 63
-57.494795 4.677844 -27.697071 104 74 70
-105.284178 -11.127984 145.209014 94 82 87
12.008801 -20.763892 -250.660515 186 142 119
-57.636517 3.447866 -26.277658 24 16 12
-105.802524 -2.803230 142.454588 172 127 111
-107.528281 6.737343 142.759943 185 142 122
-107.528281 6.737343 142.759943 185 142 122
-104.281521 -35.163766 156.871212 64 49 42
-104.281521 -35.163766 156.871212 64 49 42
-28.830695 -10.562470 -95.259422 49 24 26
-99.122936 -72.159511 161.942148 143 105 92
-100.856495 -66.846800 165.030777 180 136 118
-42.909983 -5.992492 -70.164263 12 8 8
-102.741122 -42.265415 157.384646 88 65 76
-101.306951 -59.953123 163.095617 185 141 123
-101.509559 -57.017356 162.402093 185 141 123
-102.099061 -51.011515 161.121452 188 143 126
-95.201617 -77.735865 153.530085 115 83 61
-103.971243 -30.068776 155.694163 151 102 79
-107.456231 16.128893 140.231812 94 44 35
-57.416761 4.134325 -26.236948 105 78 70
-105.018568 -3.305713 143.808377 109 73 64
-105.018568 -3.305713 143.808377 109 73 64
-104.981899 -5.299125 145.428634 132 89 75
-106.512761 5.757931 144.199646 73 47 37
-103.670847 -32.379392 157.497060 187 142 123
-101.574183 -43.065974 157.155716 116 76 68
-100.318658 -64.740235 166.171014 141 94 72
-100.728416 -62.372845 166.184926 143 92 72
-106.983018 16.752401 140.690851 198 132 114
-106.983018 16.752401 140.690851 198 132 114
-106.983018 16.752401 140.690851 198 132 114
-104.537523 -4.835218 145.349097 171 132 114
-103.084552 -34.671569 158.436859 43 24 21
20.376539 -28.527692 -279.459047 37 19 21
-85.326988 4.496874 72.920859 28 15 14
-106.695724 17.481431 140.998518 74 23 17
16.619478 16.981287 -294.679618 129 78 55
-101.240349 -39.636022 156.727624 115 91 94
10.439997 -20.943281 -250.187707 154 120 98
10.439997 -20.943281 -250.187707 154 120 98
-100.073874 -57.015824 165.138125 194 148 133
-106.192517 16.100994 141.976833 157 121 104
-95.365793 -52.621996 147.335041 194 148 133
-104.053473 1.814040 143.366170 71 46 38
-104.053473 1.814040 143.366170 71 46 38
-106.209314 18.839686 140.758121 169 126 106
-21.350688 -10.788691 -137.537813 54 33 25
-96.543413 -72.413754 168.899250 136 99 84
-104.236460 4.434136 148.555100 160 123 108
-102.658498 -1.723994 147.960579 170 128 112
-103.953910 22.797282 139.832914 97 63 59
-101.129234 -14.706863 153.352773 87 69 80
-91.523403 -77.599996 158.740187 100 71 53
-44.077852 -28.069761 -49.778569 103 67 57
-96.484303 -70.729303 175.620568 149 110 98
-98.146844 -37.916911 161.574638 150 103 90
-103.601360 21.560311 143.941200 52 39 55
-101.554406 -0.752088 150.862730 164 121 105
-98.467982 -29.616609 159.198058 164 122 107
-101.617444 6.201600 148.161685 169 126 109
-102.538478 21.994509 142.268610 144 109 96
-101.249945 10.103532 146.235621 104 67 61
-100.988221 6.947216 147.440732 104 66 62
-100.988221 6.947216 147.440732 104 66 62
-100.804603 3.962931 149.378669 112 73 65
-100.804603 3.962931 149.378669 112 73 65
-101.754093 19.367577 143.357563 96 61 54
-101.754093 19.367577 143.357563 96 61 54
-102.053082 22.466613 142.724025 94 62 56
-101.104426 7.840773 150.445092 154 116 100
-100.307953 4.065454 150.942206 100 69 62
-101.454425 20.246536 145.368898 147 113 96
-100.590658 10.360844 148.706746 101 69 62
-89.839119 9.900831 110.939801 101 69 62
-101.284349 28.336373 140.351558 133 111 119
-101.284349 28.336373 140.351558 133 111 119
-100.700116 14.563894 147.398341 100 64 55
-101.317453 22.809744 144.844925 90 65 59
-99.456590 1.737675 151.943648 162 125 106
-91.743225 -73.985869 174.316883 45 38 45
-100.409698 16.316281 147.205734 150 117 101
-100.098658 14.244972 147.760487 155 119 101
-100.774097 22.564210 145.374596 143 108 95
-100.443506 20.487007 145.745480 150 115 98
-97.990024 -9.438305 156.715035 80 76 87
-91.926318 -68.691510 174.218953 70 69 78
-99.749047 16.777544 146.389592 95 65 61
-92.232698 -66.662145 174.413347 124 118 120
-91.931295 -63.269562 174.879670 68 65 80
-97.321874 -1.393153 157.111418 105 74 66
-97.668010 1.664643 156.531990 105 73 69
-96.531421 -7.634039 158.494842 107 93 100
-98.118794 8.089024 154.775333 102 72 64
-99.321592 24.372450 149.093688 151 116 99
-98.354942 14.359000 152.354634 99 66 61
-98.474407 18.653780 151.084900 95 63 57
-98.798472 24.901295 148.887289 102 66 60
-97.643012 12.106282 153.913593 160 123 105
-98.110342 18.467137 152.299583 151 118 98
-204.136395 67.192632 565.790987 154 120 100
-89.989066 -63.182890 178.240108 68 62 78
-97.439086 14.688778 153.177404 103 69 64
-98.250192 24.652611 149.411559 153 117 99
-98.605525 28.351009 148.243201 147 114 101
-84.708834 -77.407956 169.096053 88 62 50
-88.649577 -68.789554 180.979109 58 54 69
-95.521444 2.974547 161.017036 159 125 109
-96.181953 -4.515169 170.491910 171 128 112
-96.181953 -4.515169 170.491910 171 128 112
-95.753998 9.460644 158.479571 158 122 104
-95.350260 5.663532 160.247648 100 71 63
-87.898743 -62.952900 180.778849 58 57 73
-96.254367 15.908007 157.056630 150 114 95
-95.698589 12.108577 158.183157 99 67 62
-83.095443 -77.623719 172.405875 107 82 62
-87.545949 -64.405066 182.160234 54 49 67
-96.018112 18.457463 155.924988 101 71 66
-94.777578 5.396019 160.955393 157 120 104
-94.457072 3.301849 161.323678 165 127 109
-96.488988 24.858606 154.329681 96 65 60
-96.198642 22.817485 154.791272 99 64 56
-87.085724 -65.807998 183.605969 50 44 58
-95.147634 11.860551 159.014010 158 125 106
-94.876528 9.815376 159.491467 161 126 107
-95.527548 18.188001 156.761718 153 118 104
-92.865014 -11.914590 168.783176 128 93 82
-95.919907 24.594241 154.848802 151 117 100
-95.585591 22.518930 155.059767 151 116 98
-94.649082 12.418020 158.719289 110 75 69
-62.599581 -63.504732 73.433113 254 254 254
-95.014703 18.728463 156.236672 100 68 61
-85.971320 -69.743145 185.505271 155 115 101
-86.125362 -62.603134 184.280014 68 65 80
-84.834665 -69.769454 187.403512 114 74 63
-93.194973 7.141218 164.976048 154 117 98
-91.449344 -8.316202 170.629549 139 115 111
-93.601018 13.610981 162.962282 156 121 105
-91.295356 -8.326023 170.046318 139 115 111
-91.330200 -7.116426 170.036709 106 112 115
-91.330200 -7.116426 170.036709 106 112 115
-93.051016 9.831275 164.420891 101 69 63
-84.636700 -67.475969 189.358640 106 72 61
-91.299278 -5.582228 170.048320 99 64 60
-93.466991 16.351633 162.347901 98 64 56
-91.871840 1.389697 167.382407 156 123 104
-93.200487 14.218962 163.143027 110 74 66
-94.060987 26.349285 157.609963 147 112 92
-91.459626 -2.114745 168.756354 95 55 44
-90.873909 -6.280722 169.550753 131 123 122
-93.786144 22.734025 160.054624 90 63 57
-92.450517 9.526069 165.103614 150 116 100
-92.196399 7.451829 165.845358 160 124 107
-90.745419 -8.161141 172.075236 138 115 109
-90.745419 -8.161141 172.075236 138 115 109
-91.360855 3.498655 166.111839 108 75 69
-92.496359 13.882443 163.332283 159 124 104
-93.218935 22.477604 160.896087 153 116 101
-92.938209 20.398369 161.457944 154 120 100
-93.334883 26.851252 159.370899 150 117 98
-93.677723 30.557719 158.237219 151 115 101
-92.650259 23.005967 160.277736 96 63 59
-79.777116 -80.410028 186.834002 112 80 64
-87.516737 -96.262252 245.929527 116 81 64
-90.278351 7.392533 170.966935 108 75 68
-90.661389 14.012186 168.679345 100 66 59
-91.646898 24.437916 165.236211 147 111 94
-91.178703 20.607717 166.964591 99 69 64
-89.679664 7.141384 171.559334 157 120 104
-83.414757 -48.034433 188.937223 94 59 61
-91.475934 27.175224 164.507687 96 65 60
-91.247344 25.117624 165.195274 99 66 59
-89.939332 11.649726 170.541382 157 121 102
-90.559548 20.280559 167.585111 150 115 99
-90.287477 18.229717 168.138123 156 120 101
-89.746708 14.357254 169.795382 99 64 60
-90.909612 26.899031 165.237951 148 116 98
-80.139279 -69.875646 197.323346 71 48 59
-82.629251 -94.422668 232.854652 168 127 106
-82.629251 -94.422668 232.854652 168 127 106
-90.708268 24.811658 166.105151 152 115 99
-83.977818 -34.630901 186.968505 96 72 84
-89.343131 11.447911 173.765016 105 67 60
-89.343131 11.447911 173.765016 105 67 60
-90.444034 27.485850 165.098786 96 64 60
-80.418801 -101.193702 231.437635 34 20 16
-79.045212 -74.345833 199.998832 39 28 32
-86.259007 -11.596702 180.160439 77 53 62
-81.694627 -95.453715 234.771585 109 66 49
-89.704597 21.293119 169.633651 99 65 57
-87.239856 0.064700 176.165521 110 71 64
-12.620717 -19.099504 -201.697445 144 102 89
-90.106690 24.700688 169.451404 97 62 55
-90.345424 28.073776 168.498921 92 63 57
-14.818276 -4.260125 -204.176164 69 51 63
-78.392524 -72.332186 199.615014 136 99 85
-89.843649 19.906226 175.645304 135 100 91
-89.499497 27.701375 168.317175 143 108 94
-82.430083 -36.361879 192.231703 109 84 87
-88.878649 27.139190 168.491328 50 36 53
-88.878649 27.139190 168.491328 50 36 53
-81.987077 -31.148329 186.596298 75 48 32
-81.396896 -38.047522 194.237161 156 121 105
-87.367761 8.555339 183.049428 35 24 25
-85.397249 -12.375081 192.777038 181 137 119
-81.072432 -37.609822 194.757879 133 89 77
-87.909472 8.587059 188.960981 43 30 25
-20.522583 -11.658848 -156.432176 22 16 14
-78.238219 -63.115871 205.836272 205 158 137
-17.989272 -13.985519 -174.670982 32 15 18
-85.703319 3.790680 183.421361 153 108 95
-34.857416 -17.082867 -84.469771 32 20 18
-80.594522 -35.290560 195.700920 117 79 66
-76.969427 -64.367497 207.524228 137 88 65
-85.254860 5.053135 184.803462 168 128 112
-14.416365 -20.484522 -198.226488 27 13 15
-14.127766 -19.505684 -201.475358 32 15 18
-79.402298 -38.977802 199.253714 175 132 115
-83.016002 -12.025330 194.224119 193 145 128
-75.956309 -66.751975 210.531187 172 128 109
-78.707117 -39.742938 199.223113 99 65 67
-82.825291 -6.011219 188.835943 176 132 114
-76.117116 -62.853193 208.957958 191 147 128
-82.070065 35.014847 142.931044 153 123 101
-83.947712 5.029552 185.679579 108 72 64
-87.089759 26.469335 182.516372 32 24 19
-78.403568 -39.707658 201.055670 89 59 62
-81.433898 -18.350175 196.796846 30 8 10
-81.021708 28.099814 146.280444 95 61 58
-85.937971 21.844213 183.281660 101 66 63
-75.264716 -64.297873 211.874008 139 90 68
-82.771051 1.777776 189.478505 175 131 113
-14.348313 -24.025808 -200.896621 165 123 106
-14.348313 -24.025808 -200.896621 165 123 106
-14.216197 -25.187507 -200.808764 165 121 108
-31.982556 -10.497002 -73.969305 68 42 36
-80.528033 34.382239 146.907794 148 113 94
-80.528033 34.382239 146.907794 148 113 94
-69.418424 -81.200242 208.070970 88 67 57
-14.778566 -24.777095 -200.702262 24 16 14
-81.164658 -12.068631 206.829572 29 14 10
-15.697177 -19.507065 -201.260948 143 111 94
-75.634569 -48.104730 216.404986 111 89 96
-75.198394 -43.875480 208.967662 147 101 88
-81.168532 3.933165 193.231595 121 73 64
-16.137254 -19.189374 -201.030183 49 35 23
-74.666452 -44.572991 211.351252 185 141 124
-74.666452 -44.572991 211.351252 185 141 124
-75.507039 -36.257517 207.560492 108 69 59
-74.356419 -46.994188 212.702656 104 71 67
-79.133731 36.795536 149.748266 146 113 88
-80.111998 2.694469 196.347439 105 68 61
-79.911238 2.652994 195.336354 105 68 61
-73.773295 -46.170497 211.912632 176 133 116
-83.583528 36.002815 181.781650 143 111 97
-79.448503 7.803240 198.895907 75 56 68
-78.234500 5.045379 200.130677 90 60 49
-78.331172 6.927137 200.784302 158 115 100
-43.419975 -7.766801 -29.652759 102 70 58
-67.527813 -69.790798 223.973799 68 59 70
-78.335327 15.643671 198.298430 108 68 64
-77.907240 12.203053 200.382733 103 65 60
-40.606558 -24.315323 -26.319790 83 73 79
-79.092568 26.164404 194.906819 93 62 57
-79.247671 29.617694 193.080437 95 60 53
-76.240313 6.082217 205.943370 85 56 47
-43.140438 -3.671362 -31.595740 149 115 98
-77.363729 16.228199 202.995181 99 66 59
-75.822562 6.968816 206.116939 153 115 97
-78.500581 27.520952 199.299133 145 110 93
-77.770925 23.310551 200.357056 93 62 56
-75.722015 9.318472 207.075334 100 66 60
-76.909250 20.800285 202.542067 155 118 99
-77.193511 23.029584 201.793122 148 113 95
-78.574848 35.327393 196.881390 95 62 55
-77.435291 27.906224 200.376081 148 113 91
-62.293190 -75.422210 239.058900 116 80 71
-73.969108 11.331222 213.157296 109 72 63
-59.367359 -82.517737 231.363511 105 74 58
-59.367359 -82.517737 231.363511 105 74 58
-75.645632 25.365183 208.129334 151 115 97
-74.547434 18.778911 210.709023 106 71 62
-75.169319 26.080781 208.552718 110 72 64
-73.843312 18.482026 211.489892 155 119 100
-73.213577 14.185724 213.607407 100 65 58
-74.475843 25.752053 209.267807 151 114 95
-73.555905 21.435030 209.807801 100 65 60
-74.935365 33.078790 207.452250 148 112 91
-74.825615 36.104399 206.594443 91 57 50
-58.609301 -74.725676 244.088984 107 76 65
-63.817519 -41.602445 239.473772 158 119 106
-71.252120 11.307643 222.577715 96 64 56
-58.627659 -71.522099 246.714902 49 31 23
-70.197988 9.131276 223.391747 151 114 94
-70.406640 10.891093 222.916412 150 115 98
-71.976596 23.913866 218.675590 107 69 59
-71.061993 18.540531 221.226645 150 114 96
-73.734152 38.100863 214.135647 142 107 91
-70.608276 16.067004 221.492743 159 120 100
-72.566891 31.322002 216.476893 102 66 60
-72.844607 33.707955 215.731788 92 61 56
-71.656126 26.011655 218.722105 147 114 96
-46.404487 8.690094 0.563995 153 123 101
-68.749064 43.028736 177.310812 59 43 44
-69.089752 20.879939 228.241897 146 110 92
-68.856734 24.970844 228.773689 135 101 84
-68.856734 24.970844 228.773689 135 101 84
-69.813263 31.731638 226.274228 84 56 50
-68.153781 21.321055 229.933000 119 86 73
-69.314331 32.515919 226.157832 137 103 85
-66.961926 16.778861 232.878804 43 29 22
-67.184204 18.941684 232.260728 46 28 21
-67.184204 18.941684 232.260728 46 28 21
-67.521828 25.309461 227.945542 115 83 58
-67.534995 24.278300 230.343819 45 29 22
-56.161737 -54.085165 261.714935 103 71 62
-69.894356 45.731470 217.683363 104 94 106
-53.690583 -111.304736 356.605601 27 15 13
-67.979032 30.377778 228.507662 41 26 20
-68.093491 32.004812 226.902318 106 82 62
-68.093491 32.004812 226.902318 106 82 62
-68.360871 33.607045 227.427292 41 26 21
-53.765351 -65.308446 263.914704 60 53 66
-53.765351 -65.308446 263.914704 60 53 66
-57.393181 -124.404991 440.681028 43 28 29
-68.774229 39.900693 225.857091 41 25 19
-68.774229 39.900693 225.857091 41 25 19
-69.274360 45.301637 224.356318 29 16 14
-64.261568 10.756285 241.712499 81 54 47
-64.261568 10.756285 241.712499 81 54 47
-68.583703 47.934625 220.400953 22 14 9
-50.277096 -77.184856 271.052098 118 86 73
-62.430346 5.971915 236.639738 158 115 98
-35.880882 -1.589231 -26.502758 136 100 82
-55.164713 -44.753635 261.428332 111 78 68
-66.263717 29.629990 236.910868 89 58 54
-68.128246 45.277789 227.799153 104 76 65
-64.829534 21.500976 240.735173 150 114 96
-65.099466 26.773155 238.600993 148 112 93
-56.710547 -27.542701 261.760855 120 82 73
-66.195726 37.030748 236.015987 142 107 91
-66.501874 42.478922 234.753966 138 103 81
-62.641311 16.224587 255.411935 154 116 99
-66.650909 48.240077 235.790968 80 55 54
-62.073499 19.328411 251.084924 98 65 58
-63.763809 32.183933 247.922540 147 110 92
-62.900048 27.501601 249.487472 94 63 55
-44.543624 -103.691077 338.287306 119 84 66
-61.665905 24.526642 251.177597 150 116 95
-61.584729 27.924934 250.392866 93 58 54
-43.003005 -107.045174 349.296713 135 94 72
-43.003005 -107.045174 349.296713 135 94 72
-43.152317 -105.421722 348.909044 147 109 92
-39.691034 -111.359692 325.302100 44 26 16
-42.122355 -104.848862 353.447509 95 56 41
-57.838315 13.673909 266.243553 79 54 46
-57.838315 13.673909 266.243553 79 54 46
-58.299130 16.873556 264.659500 97 62 54
-56.343836 6.204464 268.608761 98 57 48
-59.017038 25.208870 262.137341 90 59 53
-57.461101 16.539884 265.589619 143 106 86
-47.973329 -39.384454 285.394597 152 116 101
-47.973329 -39.384454 285.394597 152 116 101
-57.076442 17.366837 266.882324 100 63 59
-57.712889 22.152925 264.046574 150 113 93
-45.723903 -53.322464 292.889690 124 101 105
-36.585015 -112.630892 327.587771 252 247 245
-58.074111 48.216429 192.470050 62 44 41
-58.550757 30.520511 261.951494 148 111 92
-57.528239 25.646347 263.476157 95 61 56
-59.347242 38.687536 260.004497 143 110 88
-42.913365 10.955269 29.966950 97 65 53
-48.227152 -31.310049 289.940381 97 72 81
-45.229688 -51.963526 303.858352 33 19 16
-58.390886 33.864269 260.997939 88 57 51
-57.713813 48.601618 195.372045 148 114 90
-47.568059 -29.701862 296.324706 69 51 63
-57.105494 48.486111 203.347898 136 97 81
-56.840801 49.825552 200.432539 53 36 36
-54.116416 16.366395 277.810049 164 123 101
-55.824113 27.266097 276.012659 100 65 55
-34.564203 -15.302810 -36.161351 109 84 87
-45.701760 -33.184996 299.257278 101 75 79
-48.677257 -13.451730 293.415236 44 23 19
-54.608351 24.641365 276.720548 144 102 89
-44.954833 -34.845465 301.188731 109 79 81
-55.341733 33.954656 277.524614 131 98 89
-55.682290 37.765715 275.421882 138 103 91
-49.207675 -3.890979 302.241063 126 77 58
-48.360047 -7.234192 304.465103 149 111 95
-56.153291 42.329422 277.426052 128 94 85
-30.994108 -108.822143 333.026600 90 52 42
-48.538488 -4.598031 302.926469 135 93 72
-52.185023 20.878147 284.669185 59 41 56
-35.267302 -6.772476 -38.201469 153 108 95
-49.081185 14.836082 297.043633 154 116 96
-45.743227 -6.688727 314.870191 184 139 116
-45.743227 -6.688727 314.870191 184 139 116
-35.060686 -6.535283 -38.409504 168 128 112
-48.172516 14.998527 299.319386 115 74 66
-35.908386 -66.980594 385.060501 172 132 113
-32.709703 -10.549547 -87.327754 136 101 88
-48.125422 17.764205 299.859071 97 58 49
-44.676554 -3.374769 320.681620 112 78 65
-50.948781 34.622806 301.012707 20 13 14
-41.691902 -19.317119 326.335025 167 122 106
-48.095170 20.154251 300.155997 100 64 58
-52.688169 48.336124 292.981482 38 15 14
-42.121440 -19.423880 337.438917 72 42 27
-44.049799 -2.610763 323.511243 51 24 21
-42.067254 -12.314397 322.495103 139 103 84
-42.911956 -5.897650 325.226998 153 115 97
-50.168163 42.434499 304.960537 166 123 105
-50.168163 42.434499 304.960537 166 123 105
-45.408538 15.560368 310.314846 112 69 58
-18.504511 -146.993673 448.094320 251 244 244
-50.566190 46.651202 304.195714 165 123 106
-50.566190 46.651202 304.195714 165 123 106
-41.991580 -2.122184 327.485561 82 48 57
-50.882685 50.778192 301.115465 165 121 108
-47.610152 32.352915 311.451101 30 18 17
-26.320997 -9.950082 -130.429053 55 42 53
-26.320997 -9.950082 -130.429053 55 42 53
-41.276425 -2.351446 312.249279 82 48 57
-39.574262 -14.036705 336.455560 174 133 113
-32.796356 -15.139352 -34.618866 108 69 59
-49.298218 50.461125 309.294748 24 16 14
-16.578215 -139.510059 423.629475 70 16 20
-50.550377 59.698564 295.598650 45 30 26
-17.053472 -131.617796 403.359985 251 247 246
-44.740739 29.600677 325.013709 49 35 23
-44.979957 33.632958 318.854451 57 37 28
-19.791850 -106.998336 400.616693 26 15 10
-38.390401 1.875414 335.377622 55 42 53
-40.626156 25.378835 333.201003 69 50 62
-39.226359 35.798338 332.855439 87 54 50
-18.499564 -74.667728 382.671380 49 36 31
-40.216190 45.117816 329.727602 87 54 50
-37.649974 32.142347 343.207479 84 54 48
-37.722754 34.605405 249.254727 87 55 46
-22.048940 -50.237322 359.970260 89 60 55
-22.048940 -50.237322 359.970260 89 60 55
-38.562241 42.118558 342.984104 82 51 47
-41.683504 60.311240 331.487513 77 48 45
-4.109023 -142.156219 354.845595 105 63 37
-40.220758 61.273617 335.487103 75 46 43
-24.825716 -22.468956 361.205530 85 57 48
-33.071843 23.747699 355.498385 72 47 42
-35.038015 39.270064 359.677887 75 52 46
-37.010932 55.249006 356.230092 127 95 79
-5.701785 -93.266952 366.409349 172 132 114
-30.470291 47.839779 382.192707 71 47 38
-3.928414 -100.485194 368.009162 81 45 31
-3.523677 -101.327968 362.764812 102 72 70
-13.182054 -45.829296 365.405059 136 113 111
-31.421497 58.234978 379.107761 72 47 44
-2.677542 -102.025867 367.807961 126 91 81
-2.806805 -99.402076 367.920828 163 128 103
-2.806805 -99.402076 367.920828 163 128 103
-28.470564 48.020455 381.069255 77 48 45
-7.808105 -66.752172 370.013356 171 131 117
-10.893545 -51.218259 360.452080 84 68 73
-3.101867 -90.933967 369.656324 149 123 119
-1.897146 -93.678743 372.517729 86 48 32
-5.435910 -75.199938 365.520954 109 79 72
-21.116069 11.999780 362.150669 61 57 66
-4.680742 -75.713563 371.821761 124 91 79
-9.380359 -48.788711 372.626543 145 109 100
-0.330259 -97.903472 371.424985 163 128 105
-4.872169 -71.777564 372.904468 145 103 80
-6.626877 -65.919524 337.323737 145 103 80
-27.938560 -10.441721 -133.296192 151 115 98
-5.103406 -67.762214 376.185584 159 122 102
-27.720588 -9.639491 -117.111135 97 73 78
-13.394564 -24.030802 359.096169 79 61 67
-3.300023 -75.043643 373.963189 86 47 31
-3.510476 -72.321939 374.704719 83 45 30
-8.324470 -46.018770 373.763609 77 38 27
2.165072 -104.155290 366.866755 75 52 60
-2.752117 -76.732033 367.827630 64 46 52
2.382080 -101.690793 372.079420 169 132 114
-40.172756 -1.956966 -400.271177 158 119 98
-7.306706 -41.979468 378.132010 156 117 97
-7.285671 -42.097810 376.030374 162 122 97
-7.285671 -42.097810 376.030374 162 122 97
-11.960657 -15.976989 374.170423 153 117 104
-7.421431 -40.610495 375.701594 144 104 80
-29.666227 -5.095376 -147.982907 83 43 34
-4.672857 -51.744515 369.862103 58 40 47
-14.509289 4.024395 368.501592 54 44 52
-9.681039 -22.154392 369.235730 95 64 53
-4.074233 -48.728845 380.222201 143 109 95
4.975615 -97.805774 378.613853 176 135 115
-28.008386 -8.359709 -121.593857 172 132 107
-9.077849 -19.669588 376.949167 143 105 80
0.158605 -69.739056 378.653455 169 128 113
-24.742295 -10.087094 -27.948409 140 104 96
6.553201 -104.856324 376.593661 85 45 31
4.687233 -94.543451 376.888323 160 128 118
-11.346529 -52.357334 198.308253 118 85 77
6.336700 -102.161467 377.176547 86 46 32
-13.981357 9.007005 374.416685 148 112 96
-10.658731 -16.075052 340.984058 124 92 76
-10.658731 -16.075052 340.984058 124 92 76
6.150206 -99.537337 377.898836 90 47 32
-14.271317 12.224957 373.897624 151 115 98
-9.742572 -11.594248 377.487659 123 93 70
3.286998 -78.755128 379.863143 129 94 79
-12.972124 10.521717 374.267292 53 27 21
-11.910622 5.295447 373.432946 96 70 60
3.257350 -76.148975 380.308652 157 119 92
3.257350 -76.148975 380.308652 157 119 92
-8.341988 -11.764126 379.551625 31 15 13
-17.269416 34.528142 367.161918 58 50 53
3.038206 -73.353368 381.026244 170 130 107
-1.571258 -46.994731 381.359816 161 123 105
3.462044 -71.053958 388.198161 131 90 78
-6.295452 -18.536384 382.891250 133 102 89
-24.379697 -9.884560 -28.464800 143 105 80
-26.551977 -11.364843 -93.657619 172 132 107
-26.551977 -11.364843 -93.657619 172 132 107
-24.804240 77.640343 355.218005 83 72 76
-16.632029 37.806469 371.712327 121 90 78
-11.937353 15.247856 377.325988 150 116 95
-16.684410 40.204135 372.302985 134 98 82
-28.012580 -11.937951 -128.179240 87 69 73
-17.007481 42.912394 370.403028 132 95 80
-17.283438 45.440003 372.255373 130 96 80
-12.108143 18.855667 375.890827 161 118 99
6.094175 -81.418049 372.051954 93 74 77
-27.934280 -12.260515 -127.146590 98 78 81
-35.816765 -5.364761 -271.606588 158 119 98
1.362804 -49.301443 385.667038 142 103 79
-19.992545 62.698019 361.277199 32 27 38
-15.927312 44.891602 372.065187 43 22 19
-15.638949 43.180838 371.366096 99 69 52
1.592769 -44.950294 391.474819 145 105 92
-15.968089 46.419415 370.284319 105 76 60
-16.205375 48.535451 370.578265 34 17 13
-8.895113 15.334125 386.152887 118 95 90
-13.895181 39.458477 370.828032 108 81 60
-14.146785 42.654899 370.403576 114 86 65
-14.800175 47.878757 372.720003 86 62 45
-13.598362 -18.636885 192.086399 115 83 70
-0.637736 -24.360916 383.910441 113 80 71
-8.003528 18.206041 376.679730 83 58 62
-0.883949 -14.832728 392.302704 131 92 84
0.811807 -23.903532 389.262009 39 18 13
-4.348643 5.948621 386.896110 38 21 16
0.108326 -13.732116 391.759515 34 17 13
0.108326 -13.732116 391.759515 34 17 13
-5.188254 16.223033 386.904883 51 28 21
2.045006 -20.713130 391.683483 133 104 84
-10.012816 39.628315 368.723893 84 63 69
-8.405285 39.567634 383.362913 129 98 78
-6.490847 30.926275 382.463932 119 94 89
-0.844852 1.491468 383.551860 57 45 56
-7.274966 41.277793 385.199904 27 15 11
-10.991164 59.216607 371.888494 82 54 46
-4.145613 27.940682 377.200079 77 53 45
-6.018063 47.934076 391.871905 79 57 46
-3.922582 37.908962 391.237593 34 22 17
-13.015974 86.950076 383.644009 180 117 91
-13.105516 89.403081 383.298421 177 113 90
-4.800139 48.496038 389.904356 33 20 15
-4.232984 54.781616 376.018977 89 58 53
28.130817 -104.712546 409.531069 152 113 95
1.583348 33.952504 388.796258 81 53 50
1.243195 39.668611 389.371657 80 52 50
0.694053 45.415100 389.183903 77 50 47
43.176112 -135.559440 492.025852 110 65 47
-0.001637 50.639260 385.215068 71 46 45
-5.799712 85.175270 381.169295 78 69 77
5.436541 35.834518 404.774046 79 51 46
-251.968265 -3.655422 102.629256 166 128 114
-23.016903 -7.617468 -90.112776 163 120 99
-49.218535 -8.896748 -67.717755 72 41 34
-272.462869 -111.734462 140.156031 59 58 69
-265.363479 -85.236269 130.749631 75 51 62
-45.628870 -13.175468 -69.761980 72 44 36
-262.898040 -47.016016 122.822964 66 43 31
59.040862 10.455059 -172.640753 113 71 46
-260.988998 -73.087400 126.273715 162 120 105
-234.262228 -46.316841 99.227250 71 41 36
-244.154835 -3.593539 101.188052 190 126 107
-247.047162 -28.102997 108.016515 123 82 68
-223.759723 -43.942830 90.335447 72 41 34
64.602381 12.701733 -179.206860 104 66 55
-248.582077 -37.139636 111.583364 94 75 74
-242.066383 -5.455017 100.659156 75 32 28
-243.727732 -6.370602 102.331042 63 33 28
65.512174 10.815430 -179.816353 182 138 126
-245.201659 -25.466678 106.786120 105 69 59
-183.195865 -8.560110 47.790623 83 51 39
-190.960646 -9.926275 54.849350 83 51 39
-251.532125 -68.190187 122.102010 104 68 55
-248.372889 -68.250644 120.635509 169 127 112
-248.801613 -69.194204 121.311355 115 68 59
-239.773726 -20.609279 105.272412 35 25 23
-236.961222 -22.254866 103.870857 62 45 60
1.361904 -2.633648 -112.753224 43 23 22
-246.054602 -71.753591 121.124279 89 61 64
-253.322721 -84.295797 130.088556 198 152 134
-244.200635 -66.871589 119.463825 175 130 115
-243.397665 -72.366750 120.564902 121 81 72
-232.497883 -12.639365 100.573909 108 70 56
-233.311701 -28.120229 104.413939 109 73 64
-233.311701 -28.120229 104.413939 109 73 64
-232.144094 -15.992141 101.380515 106 71 58
59.083068 15.307681 -177.671158 110 77 74
-238.355923 -62.841195 116.615641 70 51 65
-226.631021 -11.543576 97.956425 157 123 101
44.238850 -1.719008 -160.759497 170 133 117
58.618379 24.925268 -180.397058 196 151 132
-237.086654 -80.884606 121.447718 122 101 114
-276.054025 -136.972892 169.543970 168 129 119
-237.489104 -100.977337 126.322305 72 55 65
-270.808840 -136.728108 166.702068 109 67 51
-219.866776 -11.305261 97.649127 102 69 63
-220.580888 -20.717198 100.075471 165 128 109
-258.058143 -136.524594 161.065781 87 63 57
-214.256644 -7.458481 94.564021 100 67 61
-224.171567 -94.732064 120.724714 99 63 49
-214.065504 -7.898223 95.131785 151 116 96
-214.096022 -16.582575 97.586423 160 124 107
-221.829987 -97.063226 120.876205 114 71 57
50.483048 3.367155 -173.418581 75 76 93
-213.492393 -105.423272 115.856707 88 63 51
-165.467036 -8.259145 53.365546 140 106 94
-213.971829 -91.096163 117.904365 48 48 60
-207.572293 -22.841233 98.300952 46 30 21
-206.059098 -27.037838 98.472762 49 28 25
-209.631467 -96.994269 118.232584 56 33 33
-203.026271 -8.647346 94.220489 162 124 105
-202.894831 -15.028323 96.020353 165 127 105
-202.175188 -8.066131 94.083750 114 74 60
-201.964545 -8.512133 94.650018 155 118 102
-0.391602 -1.108875 -121.524966 161 124 109
-202.731466 -18.797363 97.985542 103 65 57
-199.453509 -92.449576 111.279905 93 71 69
-126.669919 -4.025159 17.931361 155 118 102
-196.831119 -48.238319 104.227448 111 78 69
120.482707 0.240970 -259.729290 170 130 115
-93.369544 -6.166821 -18.197438 102 69 63
-191.625094 -19.845924 96.948457 93 62 53
102.114069 -2.277698 -242.386508 171 132 115
111.108994 -9.627382 -254.431152 156 122 112
-183.323145 -62.338680 106.239283 146 104 90
-183.051753 -54.242676 104.259145 102 66 53
98.401904 13.973464 -247.734070 77 53 46
-57.807583 -2.212095 -56.146449 64 45 39
-182.158649 -49.640429 106.094432 45 24 22
104.575503 14.972259 -256.580091 77 53 46
-181.964958 -81.076032 113.605964 175 134 122
-180.682003 -84.092867 112.794685 69 51 56
-180.998373 -42.220333 104.915094 67 44 43
-178.788245 -20.275271 97.275317 137 93 77
13.965507 -7.817648 -141.725051 204 137 122
-177.951968 -54.587448 104.714143 144 101 86
98.686665 12.887557 -251.218319 210 164 144
-177.846062 -17.726023 96.819264 128 83 70
-177.343690 -19.400673 97.206545 135 93 78
13.885139 -8.002778 -141.936123 171 128 107
-178.622103 -65.842021 109.831393 125 76 54
-175.982296 -52.594620 104.229033 124 78 70
-176.024079 -56.120485 105.155659 193 148 135
-176.024079 -56.120485 105.155659 193 148 135
-175.063348 -51.142126 103.954411 128 88 78
7.642786 2.478079 -135.231829 132 81 63
-176.016378 -81.507528 113.667727 201 156 135
-176.016378 -81.507528 113.667727 201 156 135
-174.533796 -19.460216 97.345400 159 121 113
-173.916161 -55.256182 105.086291 164 127 115
-173.970091 -51.911443 104.611397 189 144 128
-175.660098 -47.512692 106.634295 71 40 21
27.922460 13.608909 -165.873635 134 84 64
80.153823 13.327552 -231.567359 171 135 126
3.705631 4.252429 -133.425319 134 83 60
90.107661 16.310883 -246.089602 171 135 126
90.107661 16.310883 -246.089602 171 135 126
-174.200130 -45.598578 107.071769 137 114 124
28.933877 25.293723 -171.128619 43 23 18
-173.083842 -74.203223 113.270330 129 81 59
-170.144975 -51.353973 104.568505 146 101 85
-168.294168 -60.078710 106.295705 115 79 79
-167.958331 -60.796684 106.440234 77 52 60
-167.958331 -60.796684 106.440234 77 52 60
-168.703759 -18.863642 98.157835 109 69 57
-179.637766 -110.596657 138.643897 28 16 13
-277.808285 -8.555520 248.122954 159 123 109
-165.746331 -18.151696 98.452520 113 68 52
-165.699565 -13.603874 97.480470 170 133 117
-165.558136 -15.129863 97.754776 163 127 114
-164.502597 -23.715663 99.402064 124 122 124
-165.042555 -15.531543 98.048866 102 70 58
-162.592971 -75.488210 110.276437 106 69 57
-54.583657 -4.018329 -54.572344 194 150 115
-163.792145 -22.756593 100.061524 96 99 113
-163.836133 -22.453660 100.123131 113 117 121
-161.409330 -82.849032 112.959599 133 98 87
-161.063075 -75.347441 110.793531 114 116 119
-160.201156 -67.046094 109.384215 104 70 70
-160.201156 -67.046094 109.384215 104 70 70
-159.398401 -80.037028 111.984539 152 114 102
-159.809375 -72.941011 110.885227 63 60 71
-158.309114 -82.228142 113.053799 133 98 87
-156.156397 -71.901715 110.892081 77 76 90
-104.130602 8.473938 23.089372 119 94 83
-158.010256 -20.692986 101.578474 102 94 105
-158.010256 -20.692986 101.578474 102 94 105
-157.585740 -22.690195 101.516306 156 129 118
-157.132387 -23.834339 102.667916 119 83 79
-150.318158 -87.026751 110.204566 112 84 70
-53.527802 -3.342900 -53.457355 44 60 19
-153.025019 -80.730265 113.775980 149 111 99
-155.525315 -10.768733 100.245368 165 128 109
-53.854328 -2.586320 -52.047908 63 65 32
-152.379501 -32.425234 104.760993 166 127 113
-152.913380 -13.999449 101.687253 131 98 83
-151.380932 -25.041401 104.490066 88 61 68
-152.267134 -10.836307 101.786506 85 63 75
-148.012507 -54.723042 109.777308 147 105 92
31.718767 2.754417 -184.433329 87 51 41
-149.228501 -13.031282 103.306377 122 77 64
139.560246 66.002113 -373.143435 193 152 142
-145.490038 -75.520760 116.495383 66 45 53
-148.591280 -38.273782 111.042666 154 104 82
-203.216457 -34.448615 197.154677 180 138 121
30.778474 6.247253 -185.327244 198 154 137
8.564186 8.452789 -150.746346 137 87 65
8.839173 5.760437 -150.447810 136 86 64
25.469795 6.046449 -176.979494 192 147 125
-202.944326 -41.358915 200.358152 92 53 41
-145.021272 -48.804960 110.362208 103 73 73
-142.616343 -79.247451 116.399610 49 34 43
8.538583 7.466608 -150.858545 193 147 125
-144.958079 -72.370183 118.511939 178 136 119
30.294466 8.390227 -186.127985 72 56 51
-147.063553 -13.963331 104.448557 167 127 113
-144.409668 -45.011678 110.434055 116 75 64
-146.131575 -42.251170 112.619460 39 19 18
-38.803113 -12.081685 -69.268781 169 127 112
-145.960188 -14.611000 105.281782 158 120 105
-145.374179 -19.904199 106.280744 180 140 123
29.242772 14.276053 -187.629390 222 174 154
-143.944311 -57.481039 116.112947 219 174 154
-142.621207 -44.598645 110.652506 113 75 68
-141.701782 -47.823811 110.863781 171 132 119
-138.424051 -58.120102 109.096801 214 164 142
-141.302454 -47.510979 111.064327 165 126 113
-141.637170 -46.302462 111.443818 136 96 80
29.555950 7.277989 -187.584567 192 147 125
-143.837523 -41.090807 114.536476 155 110 89
8.016809 6.316891 -151.634324 136 84 62
-140.817082 -45.120174 111.896729 120 83 80
43.251944 7.079189 -212.076879 75 44 37
127.552664 72.041655 -374.530792 139 88 66
126.291013 74.898398 -373.453689 138 88 65
-139.942634 -41.477084 113.046086 141 119 127
-137.392819 -73.835880 119.099247 74 53 65
-138.968039 -45.402488 112.943029 154 110 96
-137.815762 -46.213222 113.095665 130 89 78
-136.963534 -54.446155 114.871573 85 59 66
-258.111668 -200.665998 374.196029 100 61 54
80.311209 24.557230 -290.854406 62 47 48
-132.399797 -74.115968 122.474909 123 84 70
-131.918252 -72.599697 121.284533 74 71 87
-131.918252 -72.599697 121.284533 74 71 87
-131.918252 -72.599697 121.284533 74 71 87
-134.194601 -40.208697 114.444840 48 40 44
-134.423506 -36.157826 114.143419 61 53 58
-53.062361 -1.239122 -44.502550 94 93 37
-131.408274 -76.934916 123.144233 137 103 94
-131.173742 -76.773739 122.716224 137 103 94
-132.140803 -67.606241 121.389008 72 67 85
-130.374122 -41.731200 111.300731 66 55 63
-132.023764 -43.623397 117.509127 106 119 125
-131.246912 -45.160788 117.760551 79 49 43
-129.845166 -48.385879 117.296708 79 53 65
-129.298675 -50.138664 117.606449 151 112 130
-128.032732 -47.664255 117.722404 222 177 160
-127.518499 -50.232649 118.577087 204 163 147
-128.226042 -37.625808 116.541541 44 47 51
-128.378808 -46.631896 120.290434 117 126 132
-127.604461 -46.781886 120.168757 69 63 68
-127.944374 -45.147154 120.474064 141 114 107
-126.708305 -42.588592 119.328737 94 106 112
-103.752208 -18.934268 66.513634 137 107 98
-131.743085 -69.207132 142.666268 143 118 122
-125.291646 -44.927609 121.817362 55 56 68
-127.934527 -30.488661 123.475468 209 163 144
-128.462923 -27.247602 123.643708 45 28 27
-128.079557 -29.310265 123.738348 53 31 25
-128.079557 -29.310265 123.738348 53 31 25
-124.867201 -44.350487 123.056757 184 140 122
-128.346384 -26.207507 123.120713 178 137 119
-54.239708 5.673037 -38.566417 17 11 10
-56.727099 -30.583826 -19.199848 152 110 93
-128.054380 -25.768578 123.232210 57 31 33
-131.403637 -27.396271 130.086434 57 31 33
115.275848 66.706991 -403.006983 130 77 59
-123.828518 -47.794682 123.234582 152 127 119
-129.728568 -24.417023 126.962769 80 62 71
-127.448213 -28.323722 124.039972 200 157 138
-122.116196 -50.631249 122.522283 57 61 70
-127.145076 -29.031771 124.735689 70 32 23
58.601892 34.248355 -275.381160 135 82 63
-122.817290 -46.871451 123.259342 120 119 125
106.066823 60.327935 -384.025645 127 77 57
-126.731157 -29.691789 125.086474 49 29 27
-130.273438 -28.461897 131.689203 177 136 125
-126.866937 -26.785836 124.623430 177 136 125
105.510402 60.773504 -384.312701 191 146 126
-122.988594 -41.698849 122.906113 66 56 66
-122.351980 -47.997570 124.154997 147 125 122
-122.334540 -52.572960 126.437342 116 87 90
-122.278738 -47.187707 124.214661 133 124 123
114.488757 64.653772 -406.826019 130 79 58
-126.249111 -29.685861 126.431954 208 161 143
-109.160459 -19.458030 86.852050 112 78 77
-126.225138 -26.658276 125.299168 210 162 145
-125.963640 -28.673485 125.652421 213 165 144
-126.160645 -24.570286 124.630558 213 164 145
-126.160645 -24.570286 124.630558 213 164 145
-125.499952 -24.497920 123.463714 213 164 145
112.207448 69.386077 -406.048250 132 82 60
93.865788 53.644079 -362.444377 129 78 56
-121.908104 -49.298778 126.201439 104 107 110
-121.908104 -49.298778 126.201439 104 107 110
-121.779478 -69.925320 134.142375 141 92 70
-106.607461 -2.755604 77.950442 44 34 40
-121.204853 -49.794352 125.724971 42 43 48
-120.599329 -50.809556 125.143921 54 44 53
-106.821311 -3.082147 78.901893 44 34 40
-129.904532 -96.667016 163.003659 124 74 57
-125.186300 -25.732929 125.732958 209 163 142
-129.708707 -94.722152 162.979317 181 139 120
-124.105096 -37.171093 128.262925 159 121 107
-124.105096 -37.171093 128.262925 159 121 107
-122.823262 -38.153684 126.067531 52 42 60
-120.985699 -40.215376 124.729872 52 39 41
-126.216805 -24.628387 129.580569 214 165 144
-120.675921 -45.314118 126.268852 45 46 53
-121.212435 -43.091175 126.588523 95 72 72
16.344923 15.651444 -188.643050 200 154 135
-118.540728 -51.148474 126.041329 127 117 118
13.776965 26.117718 -187.684095 114 75 64
-119.568646 -43.608013 126.088631 107 117 122
-123.909664 -24.158035 127.516174 195 153 132
-118.504059 -50.388992 126.683199 91 95 102
-127.062774 -27.817348 135.234797 186 146 127
-118.029261 -74.470603 136.273897 147 107 90
-119.455051 -43.775490 127.068830 65 61 62
-122.182703 -34.479174 129.913568 40 26 24
-118.994772 -20.527035 117.389917 107 74 66
-119.804573 -54.074353 133.272183 133 82 61
-118.609929 -50.493228 129.197395 46 52 60
-123.004305 -25.437644 128.687024 200 157 139
-119.312668 -39.387193 127.376056 45 40 60
-118.481314 -66.772944 137.012863 139 88 66
-123.072779 -23.296569 129.048824 189 152 136
-118.480098 -41.614002 126.985466 56 58 67
-125.408411 -26.626438 135.820496 189 147 132
-118.314207 -42.761666 128.240573 173 140 128
-115.895617 -74.036789 136.425698 146 106 94
-121.018338 -34.453377 131.283092 167 129 115
-120.872784 -34.029058 131.855536 58 25 24
-116.256261 -49.642301 128.996360 74 51 63
-116.762960 -46.046513 131.364381 81 67 67
-114.888132 -48.939744 130.456507 55 36 33
-115.752304 -40.379953 129.207528 54 43 45
-115.331388 -37.711263 129.038513 39 36 54
-115.331388 -37.711263 129.038513 39 36 54
-116.330934 -35.743305 130.851710 43 45 52
-113.808703 -48.607036 131.480563 192 151 134
-115.310943 -36.178908 129.838705 97 95 97
-115.310943 -36.178908 129.838705 97 95 97
-115.324891 -34.870973 129.864562 91 100 110
-114.088905 -44.291165 131.310260 110 81 73
-114.111733 -45.684102 132.956517 96 66 66
-204.790282 -196.854675 413.738918 255 255 255
-112.283778 -70.614630 141.645694 86 75 85
-113.632655 -44.115683 132.939744 67 65 72
-113.946402 -47.304258 135.237098 80 51 47
-113.332820 -46.448091 135.091567 136 103 116
-111.798549 -67.823082 141.354680 91 86 92
-203.314519 -194.171238 414.123821 121 78 75
-103.427267 -18.180422 98.981756 132 106 101
-112.093341 -65.199721 141.007113 95 84 94
-112.690651 -46.515125 136.345959 135 95 113
-112.413025 -45.324537 136.437345 71 42 49
-112.710941 -42.762282 136.404514 85 54 53
-112.252176 -44.915307 137.111521 120 88 82
-101.648664 -10.000617 96.396995 75 91 100
-103.924310 -4.822471 100.535750 108 93 121
-101.442289 -8.963582 96.683204 77 93 99
-101.442289 -8.963582 96.683204 77 93 99
-100.926721 -13.444375 98.522520 122 107 134
-110.349929 -38.163874 136.061418 109 101 109
-108.113217 -71.391869 146.577191 165 122 109
