ply
format ascii 1.0
element vertex 1059
property float x
property float y
property float z
property uchar blue
property uchar green
property uchar red
end_header
-118.186820 113.405108 1085.982513 111 79 66
-118.794608 169.976139 1078.503323 50 32 33
-114.725709 -12.090573 1102.164268 167 125 104
-115.475821 43.251070 1094.967365 97 59 54
-117.058039 121.736622 1085.040188 49 29 22
-113.109541 -53.343296 1106.999874 180 134 113
-118.022513 178.907073 1077.938747 146 104 88
-116.341257 119.013011 1085.660839 119 84 66
-116.341257 119.013011 1085.660839 119 84 66
-115.896702 92.510062 1089.440632 40 22 19
-115.868831 115.750027 1085.792351 53 30 24
-114.992726 103.628099 1087.202072 71 42 33
-115.862262 157.234001 1080.500507 83 46 37
-114.275038 90.138936 1089.055538 102 74 60
-114.124250 110.228181 1085.704517 149 105 88
-114.124250 110.228181 1085.704517 149 105 88
-116.046643 182.586718 1077.514839 145 105 83
-114.954650 138.759518 1082.862759 158 115 95
-110.464060 -63.016546 1108.375931 166 124 109
-113.974917 123.388636 1084.389210 130 94 76
-111.480534 11.614098 1099.305248 140 94 82
-127.896714 -178.567231 1170.909214 190 147 129
-114.553690 184.963799 1076.475334 51 34 39
-113.489342 94.866353 1089.996338 106 75 59
-113.938451 146.164775 1082.319355 22 14 16
-111.198676 34.320876 1096.100426 152 116 96
-114.055014 172.891843 1078.677940 49 27 28
-112.315691 108.813691 1086.837482 115 69 59
-111.466992 105.056512 1087.306881 144 102 83
-110.688746 82.020450 1089.978313 106 78 67
-112.750614 177.212155 1077.984047 145 104 86
-112.750614 177.212155 1077.984047 145 104 86
-110.759544 125.894654 1083.497429 40 20 17
-109.179306 19.195868 1098.926830 160 116 100
-125.792313 -180.505502 1173.361111 181 138 121
-104.942882 -77.240592 1106.748772 182 131 114
-110.538018 107.972276 1087.025833 135 96 83
-111.145651 155.828118 1080.958462 21 11 11
-110.841906 174.851620 1077.661037 123 83 70
-110.424781 132.629383 1084.170151 60 30 31
-148.547614 -230.127478 1239.172173 84 47 44
-109.498155 123.009908 1085.201740 110 81 66
-109.498155 123.009908 1085.201740 110 81 66
-110.466230 174.917364 1079.005146 73 40 32
-106.230676 9.484864 1099.571228 164 123 105
-102.209902 -122.863305 1114.186382 130 90 72
-109.436047 172.318590 1078.731537 145 105 87
-107.885253 111.912549 1086.298370 37 23 21
-108.353174 140.876961 1082.403564 47 28 23
-109.316421 179.304600 1077.853775 67 34 32
-109.316421 179.304600 1077.853775 67 34 32
-106.127369 28.944129 1097.414875 102 60 50
-107.662690 107.196808 1087.362957 39 19 18
-105.212033 12.078543 1098.807907 100 58 54
-105.212033 12.078543 1098.807907 100 58 54
-108.686519 150.152767 1082.345390 45 25 24
-105.080080 34.502542 1096.809387 151 108 95
-107.427073 153.210938 1081.085396 105 80 63
-107.399893 145.974946 1082.544041 115 80 63
-104.196548 38.083303 1095.822239 140 103 86
-104.600155 122.706974 1083.914566 39 21 20
-103.980482 106.146705 1087.287045 101 73 62
-104.054952 108.657312 1087.840176 133 94 77
-104.371238 140.650928 1083.243465 119 87 70
-101.713955 36.015579 1096.219444 133 94 80
-104.672563 162.134910 1080.601883 82 49 44
-102.403438 90.771925 1088.842106 43 23 20
-102.990544 112.981820 1086.439705 133 93 75
-104.370475 179.951072 1078.174019 151 108 92
-103.024054 126.318455 1084.797764 140 100 79
-102.569509 130.716550 1083.870602 129 89 72
-99.141026 8.903836 1098.809052 51 29 26
-97.473031 -49.541831 1106.547260 96 58 49
-102.263689 161.678815 1080.770016 119 86 72
-96.632236 -59.157646 1108.309364 120 71 62
-97.255301 -33.728266 1105.599499 164 120 101
-100.444281 111.914206 1086.704445 57 27 27
-102.067959 176.297700 1078.869152 71 37 34
-101.091862 135.665882 1084.379292 50 27 22
-98.083466 44.369090 1095.023441 46 28 26
-100.365651 149.527085 1082.121468 38 17 16
-100.876522 139.035583 1085.624409 113 78 65
-99.272877 120.497441 1085.570335 112 81 71
-100.577295 170.295417 1079.954338 59 39 39
-93.972582 -52.594507 1107.266808 134 90 76
-98.288113 148.504663 1081.887722 88 61 50
-94.340634 -20.917465 1104.056835 163 120 104
-98.291075 190.634179 1074.959469 33 27 29
-98.291075 190.634179 1074.959469 33 27 29
-98.324698 159.309411 1080.959320 108 78 63
-94.983971 24.806851 1097.886658 142 102 82
-92.758691 -38.078648 1105.665493 93 50 46
-93.589163 -8.608081 1102.513790 147 105 88
-96.020573 93.126547 1089.928246 26 15 13
-96.020573 93.126547 1089.928246 26 15 13
-92.089993 -43.471026 1106.127071 182 134 113
-92.193443 -33.814779 1105.381870 82 51 51
-95.802546 113.163316 1087.411785 27 17 14
-96.104223 130.608439 1084.997845 35 22 21
-96.104223 130.608439 1084.997845 35 22 21
-95.723456 153.004467 1080.576992 39 26 25
-92.190850 12.843151 1100.275135 90 52 45
-95.183378 149.311674 1082.244682 25 13 14
-95.240784 177.722669 1078.323078 24 16 12
-95.240784 177.722669 1078.323078 24 16 12
-94.880205 157.713461 1081.180191 33 21 18
-94.253594 168.184769 1080.202770 30 18 19
-89.493078 -23.388675 1104.439640 74 42 40
-91.384655 51.654309 1095.069790 89 53 48
-88.878536 -20.829952 1103.537369 135 94 85
-92.400146 115.755081 1086.880779 93 67 52
-93.045813 196.217477 1074.880886 27 18 12
-87.545419 -42.655468 1106.733513 127 78 68
-89.389277 30.977830 1097.572994 80 45 41
-89.317560 26.786962 1098.182487 146 104 86
-92.210597 151.363528 1082.133579 85 58 44
-91.576433 124.372602 1086.018658 53 30 27
-91.599113 127.290189 1086.310673 118 85 63
-87.084526 -19.246279 1104.274464 74 40 38
-89.631325 92.270964 1090.572643 51 32 26
-89.152229 80.008835 1092.071819 133 98 81
-85.674053 -32.123366 1105.248737 148 109 94
-89.899021 150.757921 1082.383442 50 26 22
-88.418442 100.392997 1088.708210 51 27 25
-89.504433 143.412077 1083.776379 69 41 30
-84.645790 -20.773089 1103.798962 71 39 36
-88.354123 132.555795 1084.974384 123 89 69
-84.498054 -4.324109 1101.395798 67 39 41
-84.901273 4.488879 1100.757313 64 34 37
-87.902093 125.629902 1085.643387 140 99 79
-88.835049 157.189703 1082.252789 139 97 78
-85.056102 26.320219 1098.529911 138 105 86
-85.056102 26.320219 1098.529911 138 105 86
-86.926037 113.552034 1087.623787 140 101 81
-87.572950 136.081958 1085.053062 142 98 82
-87.541527 147.267842 1082.961655 145 104 81
-87.541527 147.267842 1082.961655 145 104 81
-85.652184 70.287263 1092.955685 90 67 59
-82.283539 -41.713566 1106.829453 120 69 60
-81.975573 -46.958360 1107.265282 185 135 118
-86.338246 119.257665 1086.561871 43 22 22
-87.239939 168.131649 1080.213451 121 85 65
-86.990952 163.830554 1080.867577 44 30 30
-82.453340 17.012279 1099.629211 117 84 71
-82.313079 27.939814 1098.104382 151 113 95
-82.173324 60.838717 1093.900108 150 113 98
-82.299912 39.843032 1099.194050 71 45 45
-81.974924 71.984911 1092.675209 92 67 54
-81.283653 42.070925 1096.860981 142 104 85
-79.727668 -5.087965 1102.170086 151 111 94
-82.013959 80.581135 1091.887093 46 29 26
-80.274808 26.033941 1098.503399 152 115 97
-78.629488 -34.515846 1106.261826 141 105 85
-83.229995 139.713895 1084.368324 46 29 33
-78.489536 -31.511718 1105.697441 68 44 45
-78.489536 -31.511718 1105.697441 68 44 45
-79.188156 0.684584 1101.700306 79 48 46
-78.762561 3.046026 1101.249313 129 94 82
-78.324521 16.167675 1099.786758 120 84 72
-82.264119 141.316783 1085.689068 36 27 33
-77.776271 8.749294 1100.479507 73 45 44
-77.776271 8.749294 1100.479507 73 45 44
-78.481293 27.534518 1098.765278 90 53 49
-81.144118 132.272243 1085.672092 35 28 31
-81.545746 175.180948 1080.321789 62 37 41
-79.599309 107.465756 1088.571739 28 18 19
-75.380892 -22.324239 1104.384136 114 85 76
-74.969566 -31.028289 1105.768681 145 107 88
-76.578218 48.957241 1095.817089 78 44 43
-76.578218 48.957241 1095.817089 78 44 43
-74.018794 -33.326328 1105.992031 105 63 56
-75.127822 3.729923 1101.755524 132 95 80
-74.485803 16.387115 1099.897003 144 107 90
-75.043708 36.205995 1097.457314 93 55 50
-73.417282 -15.906161 1103.917503 106 77 70
-73.896366 12.977357 1100.277042 91 53 46
-77.319771 149.008465 1082.808304 23 18 20
-77.319771 149.008465 1082.808304 23 18 20
-77.015960 119.409359 1087.795448 76 63 75
-77.143306 128.946531 1086.339855 72 61 72
-74.237561 52.037251 1095.277691 85 50 40
-76.815695 124.195421 1087.874508 31 23 26
-70.840603 -56.447011 1108.740807 124 79 71
-73.498809 38.730875 1097.287273 141 106 90
-73.000109 29.867327 1098.453903 143 108 87
-71.455115 -10.675965 1103.151608 129 94 79
-74.453819 96.976328 1090.188313 120 88 71
-68.983352 -100.558019 1115.086365 64 47 62
-70.987314 -2.239732 1102.613449 148 111 93
-70.949572 13.568011 1100.634766 140 99 84
-70.949572 13.568011 1100.634766 140 99 84
-71.759504 52.135110 1095.715523 147 107 89
-69.819474 16.884555 1099.717331 147 108 92
-68.943906 -9.451286 1102.965069 76 44 41
-67.607820 -22.390206 1104.803181 94 54 46
-67.607820 -22.390206 1104.803181 94 54 46
-68.767512 52.148229 1095.781994 81 47 47
-68.767512 52.148229 1095.781994 81 47 47
-65.060830 -27.013099 1105.612659 95 60 55
-66.325259 67.279530 1093.721867 102 72 58
-59.363842 -102.479386 1115.007305 119 101 106
-62.587267 9.654005 1104.469585 49 32 45
-62.099415 84.807754 1092.299843 129 89 76
-62.099415 84.807754 1092.299843 129 89 76
-61.060101 8.728840 1105.722809 134 98 86
-60.738432 16.042519 1104.881287 127 96 81
-61.352432 -174.276257 1146.081638 115 78 73
-60.463750 73.594004 1093.568230 138 98 79
-60.468364 22.951593 1104.170036 138 102 88
-60.147613 34.918877 1102.879238 113 85 75
-59.086567 41.639423 1099.021721 32 24 28
-59.168690 15.086980 1105.579281 75 47 42
-57.496321 61.115795 1094.684410 59 25 29
-54.589343 -10.984636 1102.802753 113 66 57
-56.611866 16.328143 1103.782558 76 54 47
-55.626905 54.239821 1095.838547 143 106 88
-55.626905 54.239821 1095.838547 143 106 88
-55.361694 77.383399 1092.479324 105 73 59
-55.272096 69.631338 1094.013214 33 19 19
-48.476636 -100.358331 1113.222694 64 51 61
-51.502502 -13.266116 1103.935242 136 86 75
-53.380030 55.472785 1096.039581 129 92 79
-52.434945 31.919906 1103.205872 154 120 100
-52.434945 31.919906 1103.205872 154 120 100
-51.771390 41.195160 1102.347565 162 126 106
-50.627643 39.409441 1103.179455 90 58 46
-46.297818 -7.485452 1103.517628 141 105 90
-48.074082 59.929848 1095.520782 164 119 100
-46.801472 45.295924 1097.130489 25 19 23
-47.138026 73.875612 1094.177628 102 60 54
-46.433383 56.493449 1096.291447 88 52 44
-47.674909 -168.739617 1149.086857 140 96 75
-48.104402 -163.674140 1149.905682 148 102 81
-44.419500 50.787127 1096.723557 87 49 49
-50.338012 -173.104656 1162.092113 119 77 62
-44.234508 62.261003 1095.277309 155 115 102
-44.063976 90.030837 1092.221260 74 65 78
-32.810575 -148.882294 1115.296078 96 70 63
-40.033066 22.239855 1104.683685 157 119 101
-40.033066 22.239855 1104.683685 157 119 101
-38.632762 14.177395 1106.419182 79 49 40
-38.065359 20.877607 1104.684067 92 57 47
-38.390043 23.997334 1105.194664 85 50 42
-38.623756 30.379415 1104.480839 88 53 45
-36.341280 43.925092 1096.194458 61 50 52
-37.617087 66.428602 1095.233727 43 21 24
-37.289169 83.276945 1093.264771 66 42 42
-32.358694 -8.130417 1104.561234 165 121 104
-35.009578 76.661634 1093.864918 139 101 84
-29.843539 -8.963624 1103.630161 171 126 109
-35.392022 -176.814747 1157.412148 19 12 12
-31.978041 40.464985 1103.516960 162 124 103
-25.734603 53.133845 1096.912289 147 109 91
-22.169533 83.936185 1093.655396 150 113 96
-19.060361 -0.793108 1103.796577 71 44 47
-18.927963 35.514888 1099.652863 109 92 95
-18.095946 21.645786 1101.036739 79 54 57
-18.317333 25.028157 1101.199818 72 51 52
-18.122366 20.873068 1104.598904 93 61 53
-19.005710 67.604864 1095.400620 174 127 111
-19.005710 67.604864 1095.400620 174 127 111
-16.768326 49.797282 1096.640110 167 122 102
-42.479479 -235.272360 1243.199158 83 47 48
-14.850743 12.021091 1101.640034 113 72 59
-12.850243 -6.588882 1104.150391 125 78 70
-16.584848 94.215542 1092.149258 91 74 87
-11.477346 58.318013 1095.579052 171 124 103
-9.839831 102.119124 1091.968155 84 73 80
-14.956237 -236.448669 1243.622398 65 29 30
124.040473 -95.778173 757.626724 127 77 66
-13.982348 -252.434754 1264.767551 107 60 49
13.747910 70.666784 1096.204185 177 128 109
14.046067 116.351962 1090.550709 115 89 102
107.795870 102.180028 774.624538 112 81 71
36.696798 164.924502 1041.301155 109 63 52
39.157352 160.890317 1041.275692 64 56 44
43.094054 159.964943 1041.130638 55 20 14
44.578499 161.854208 1040.662766 162 105 79
38.456127 35.929778 1103.107548 85 60 47
45.991904 160.086071 1040.941811 61 24 19
57.861465 182.930756 1034.932899 111 84 61
59.592015 35.142475 1103.035355 101 72 55
241.483188 37.755013 352.798176 150 111 100
-437.073088 103.954589 516.436195 92 62 54
-430.543041 -110.658991 527.956820 89 65 73
-450.518894 -274.296904 542.305136 98 53 40
-441.024780 -167.930818 532.568789 114 65 54
-435.172606 70.737505 520.567369 98 62 51
-430.744267 -106.136549 528.638744 103 71 67
-434.589958 59.575677 521.871758 105 67 57
-417.615891 -154.480875 529.681873 114 65 54
-418.378448 -249.711823 534.558010 105 80 73
-418.378448 -249.711823 534.558010 105 80 73
-434.245205 48.472536 523.394108 106 66 55
-433.346224 19.734785 525.708389 171 129 113
-433.685207 16.660114 526.044655 97 65 58
-433.670187 37.581989 526.039219 106 68 55
-74.024290 -82.905656 438.303471 123 75 48
-430.740643 -184.116292 538.996124 111 67 46
-1452.110481 -466.464472 826.951408 136 85 64
-429.541397 -107.682920 535.793877 138 94 79
-432.911825 36.353925 529.916954 156 119 104
-1407.447624 -458.251476 822.031784 185 141 126
-440.167189 -308.984327 552.284241 92 58 54
-432.499552 51.309711 531.417084 155 120 104
-428.482151 -110.539007 539.552546 124 79 69
-428.975630 10.456330 544.393730 112 68 53
-428.561115 6.082950 557.287550 163 124 110
-422.600031 6.578431 556.965971 163 124 110
-420.898676 -192.821765 568.621683 98 103 107
-426.678514 -24.038656 560.805273 117 84 74
-426.678514 -24.038656 560.805273 117 84 74
-427.042294 -72.611344 565.915585 105 74 69
-558.708954 -361.167860 624.894524 252 250 250
-420.059013 -184.097457 572.929430 58 49 66
-419.704819 -188.425291 574.390697 51 41 58
-419.147730 -205.431247 575.549412 103 63 50
-426.067686 88.737673 560.902596 151 116 98
-419.459343 -204.911661 578.588390 154 116 102
-424.811697 76.040083 564.812613 94 62 53
-424.746895 75.990582 564.824772 94 62 53
-422.254848 1.578073 576.089478 103 86 93
-422.947216 109.946799 572.977734 82 53 47
-416.262007 -190.037084 596.280098 129 123 126
-420.641422 56.433773 584.186649 92 61 57
-420.707226 -42.348558 592.220974 154 117 105
-421.440363 83.206928 584.928083 123 92 91
-419.132423 23.670125 589.389038 123 91 77
-120.131505 41.526470 487.085342 95 63 50
-416.701412 -84.473211 597.237015 176 132 117
-423.328257 100.778234 591.342449 27 17 13
-422.911787 94.818711 594.266939 63 37 43
-421.772051 57.989520 596.414566 70 47 35
-409.624004 -195.396543 610.117722 153 113 101
-421.018267 44.349736 600.320959 72 46 37
-120.450342 -33.978996 499.492836 92 62 50
-404.865122 -232.444715 615.100288 122 93 82
-415.995789 26.741412 603.200674 114 71 58
-420.690250 67.941993 602.449226 43 30 33
-417.415810 -80.343848 612.835312 62 50 44
-417.415810 -80.343848 612.835312 62 50 44
-420.631981 -79.235160 614.703274 44 22 20
-419.081450 -68.388021 615.315485 182 138 120
-419.776058 63.593549 607.401466 177 136 120
-415.203810 28.165787 609.001970 102 67 58
-419.406319 81.154329 608.171558 69 27 19
-415.999174 116.583681 605.445242 131 94 89
-417.942429 -54.647356 617.532253 73 45 38
-123.517215 85.497081 500.593710 199 132 115
-419.096231 70.670420 611.052227 25 19 16
-198.095810 45.897233 564.488506 72 40 28
-412.681007 -101.339602 620.729637 89 66 72
-412.681007 -101.339602 620.729637 89 66 72
-418.575716 49.556401 613.219357 72 48 36
-417.717791 -18.478532 617.382812 199 152 138
-418.999910 81.444824 611.547184 76 24 20
56.449026 83.159423 437.559843 73 31 20
-123.872161 82.516086 502.236891 72 44 36
-149.663532 -74.755657 521.800661 114 65 54
-416.845369 -47.282538 620.927286 200 152 132
-416.845369 -47.282538 620.927286 200 152 132
-123.768628 83.586973 503.182459 163 127 107
-416.324854 -58.543581 622.326517 199 155 137
-418.272305 64.728379 615.202951 156 120 104
-412.361622 -87.655425 623.318624 107 69 61
-412.361622 -87.655425 623.318624 107 69 61
-413.954830 23.320992 617.248297 109 73 64
-416.594410 -44.816390 623.568106 56 24 18
-411.613703 -105.682862 625.974798 113 75 67
-413.662100 -170.380688 631.158590 191 147 129
-418.051624 81.455600 616.360188 43 34 33
-415.522003 -76.427740 626.856899 45 20 13
-411.915970 -86.724287 626.259947 110 73 67
-417.860174 50.664890 620.796251 71 45 38
-412.972736 20.492329 621.841002 76 46 42
-411.201429 -86.449140 629.071856 101 69 62
-412.674522 -169.583249 635.910416 205 160 138
-412.131357 -186.062658 637.830544 194 150 132
-415.692520 -30.996686 628.692007 53 26 19
-416.207409 -73.132795 632.046413 148 106 86
-410.565519 -95.231187 632.112408 110 71 61
-413.049078 -132.691097 635.801172 128 80 59
-414.264679 -50.932372 630.782747 72 40 28
-414.160728 43.562368 625.031185 54 42 54
-414.160728 43.562368 625.031185 54 42 54
-414.160728 43.562368 625.031185 54 42 54
-414.204359 43.539515 625.044727 54 42 54
-410.266924 -97.835493 634.458685 90 70 78
-411.833382 -168.535769 640.760136 191 146 129
-412.110901 -130.631900 642.961740 131 82 60
-390.546608 84.210396 623.097134 79 50 47
-406.296873 -197.315133 648.839664 150 110 94
-399.571061 -147.650778 645.581818 185 141 126
-428.785849 67.525911 637.155581 76 48 41
-406.688976 -120.913255 650.924063 84 59 68
-406.688976 -120.913255 650.924063 84 59 68
-402.946186 -189.389861 662.752962 153 113 99
-406.271076 -54.627216 656.779432 90 59 48
-404.899406 -66.556609 661.093330 90 106 112
-400.332880 -6.043486 657.068205 66 48 44
-402.774286 -198.991919 673.690701 54 36 39
-402.682304 -191.952312 673.145199 96 61 51
-401.090240 -8.585955 659.391737 116 90 80
-404.559469 -63.475513 666.793823 62 43 44
-399.625373 -7.383494 661.746311 62 44 43
-400.478125 -77.898586 668.578482 60 48 52
-403.401566 -82.028472 671.584797 101 118 123
-402.902174 -88.003266 674.200916 62 38 40
-401.051664 -71.121335 673.174143 36 34 50
-402.081251 -85.328764 678.619337 142 106 94
-399.594259 -113.204825 680.261326 52 33 48
-400.776529 -176.872408 688.590908 91 93 98
-400.776529 -176.872408 688.590908 91 93 98
-23.686340 -109.816074 513.799906 101 62 56
-360.663271 122.612059 651.218271 83 93 94
-400.881481 -61.516505 685.745621 36 43 52
-400.330973 -83.026332 688.531065 59 59 66
-397.549081 -68.182021 687.401104 34 31 45
-400.305128 -86.144572 691.190386 107 71 57
-400.305128 -86.144572 691.190386 107 71 57
-357.834244 28.694457 663.039112 70 81 88
-402.636576 -16.074640 688.219070 186 142 126
-400.192356 -57.644647 690.741873 53 55 63
-402.466583 -21.534982 689.066267 187 142 127
-402.137136 -44.481149 690.794468 83 48 49
-397.079492 -179.310787 699.057388 145 109 98
-402.221394 -28.189898 689.768076 189 142 128
-401.074171 -42.701676 690.682554 184 146 130
-401.074171 -42.701676 690.682554 184 146 130
-399.152422 -90.121889 693.776941 52 46 49
-394.498086 -71.981984 690.183926 100 93 102
-399.000192 -77.807528 693.618441 96 111 119
-403.467560 -52.022952 694.227695 58 28 29
-403.685474 -18.061814 692.571592 37 18 17
-403.383064 -35.986587 694.165564 200 156 138
-411.018038 -25.800446 696.159697 171 129 110
-402.903748 -15.292792 695.021582 185 142 123
-402.987957 -21.917170 695.820093 186 143 125
-402.987957 -21.917170 695.820093 186 143 125
-403.158236 -54.268765 699.117136 48 24 25
-403.474903 -29.369703 697.236252 179 135 118
-397.781873 -81.289792 699.260521 90 73 78
-396.345305 -108.666337 701.404095 135 101 111
-410.988474 -20.235169 700.311804 163 123 105
-402.620268 -14.539272 698.396206 64 32 32
-402.354193 -33.036208 699.816132 52 32 26
-401.298475 -119.832158 707.407951 139 89 67
-401.046562 -119.698358 707.318115 139 89 67
-397.014666 -175.945282 711.414814 75 54 61
-419.999266 -231.199431 728.080082 168 125 107
-9.417013 -101.842129 520.071697 101 67 64
-420.164061 -233.658075 730.030966 120 73 56
-419.597626 -237.609220 731.905460 111 67 50
-419.597626 -237.609220 731.905460 111 67 50
-419.773388 -232.670641 732.684088 115 72 53
-419.932365 -236.703181 733.178234 115 68 53
-397.885513 -85.785609 710.052967 92 103 109
-397.885513 -85.785609 710.052967 92 103 109
-399.218345 -129.003561 715.339327 138 91 69
-399.619317 -138.114071 716.541243 141 92 70
-398.828411 -45.622250 709.063959 131 90 82
-398.828411 -45.622250 709.063959 131 90 82
-399.432731 -166.946328 720.324469 141 95 72
-400.531197 -14.288524 708.518982 204 156 134
-394.759536 -69.477838 710.427284 52 40 41
-393.674207 -69.364065 710.199976 52 40 41
-400.410986 -52.124321 712.346315 39 22 21
-395.727611 -89.809048 713.107586 92 103 108
-395.578313 -101.605260 714.174509 42 41 45
-413.331509 4.949922 715.584564 196 148 128
-395.805097 -77.252650 713.900614 157 116 102
-399.665380 -12.458933 711.615944 82 42 36
-399.872684 -14.234971 711.950684 186 145 125
-392.019463 -106.941533 715.815258 52 31 38
-400.030947 -27.584568 713.702154 174 128 112
-391.797304 -70.994920 713.311148 90 97 103
-399.510503 -17.058311 712.795782 53 29 26
-399.263883 -23.476467 713.517952 49 28 24
-387.278032 -144.459546 718.056965 203 156 139
-398.069453 -127.457857 723.287296 142 93 71
-398.933959 -11.958550 714.995909 187 144 126
-397.266078 -165.346682 727.229786 140 94 72
-983.150673 -323.389387 1035.460186 140 92 71
-399.310923 -25.136942 716.731119 188 144 125
-397.669530 -156.414843 726.758289 143 94 72
-394.134235 -82.394654 719.204473 100 108 112
-394.134235 -82.394654 719.204473 100 108 112
-472.983646 -13.220522 753.934813 123 96 86
-398.090887 -115.545893 725.058556 166 127 114
-398.792195 -27.808088 719.694948 53 33 26
-397.998238 -23.614594 719.071722 171 134 119
-391.301322 -103.383231 723.336124 86 92 98
-392.209911 -110.068190 725.242233 186 146 129
-392.076612 -90.613770 725.050879 155 124 104
-397.457528 -150.925219 733.095074 189 145 128
-397.457528 -150.925219 733.095074 189 145 128
-397.472048 -37.792513 726.201391 179 138 123
-433.938789 -8.127492 742.977810 123 96 86
-396.563935 -5.949359 727.021646 55 48 70
-392.453623 -79.852217 731.442308 46 46 54
-392.001200 -179.452050 739.723825 139 102 89
-249.791026 -200.452423 668.093824 254 250 250
-389.938021 -100.086784 733.009386 68 46 55
-521.966076 -307.891798 821.460915 115 78 73
-393.054724 -102.721608 737.750149 152 115 112
-306.906462 154.691339 671.584463 69 54 48
-392.392111 -53.025627 736.913443 35 38 48
-349.325585 16.666710 712.945223 112 83 86
-390.473533 -88.131201 744.745541 98 66 61
-371.324658 15.130967 726.224041 111 84 83
-376.724577 1.997080 730.519485 81 58 58
-376.724577 1.997080 730.519485 81 58 58
-392.029333 -81.719190 746.597576 52 50 58
-401.603842 6.295514 745.559072 144 111 97
-391.160846 -70.394593 748.913336 108 110 110
-389.813042 -85.463011 749.757624 71 48 59
-389.813042 -85.463011 749.757624 71 48 59
-390.248132 -77.443784 750.193739 81 52 55
-390.248132 -77.443784 750.193739 81 52 55
-389.088440 -97.641134 753.064203 71 51 68
-397.713304 7.841177 750.825500 144 115 98
-372.567177 9.927482 736.908197 144 111 97
-347.822952 12.912740 729.580927 144 111 97
-388.407660 -47.138381 759.184122 57 48 49
-388.455248 -34.626696 760.082197 92 69 65
-388.579559 -53.834641 762.556124 59 46 46
-388.176298 -46.606192 762.011480 79 56 51
-387.547565 -165.691054 776.459932 110 71 57
-387.393808 -156.972325 778.699446 101 71 63
-385.009980 -8.752353 766.113186 163 123 112
-345.259976 39.530301 739.461899 58 68 73
-512.472773 -299.430871 872.007275 253 251 250
-386.054921 -166.376889 786.273241 155 117 102
-1191.750336 -95.974404 1260.111809 78 43 29
-385.649729 -104.309309 789.007664 134 87 65
-386.567116 6.464916 780.012703 166 127 109
-387.899804 -143.457210 794.925499 137 90 71
-150.697660 -77.711475 649.380541 141 92 73
-384.628272 -65.309763 787.692833 122 97 96
-1144.893456 -321.625948 1267.150497 174 132 111
-13.416833 21.865888 561.501169 73 45 38
-381.438828 52.881873 778.452969 109 68 60
-1144.210911 -314.261723 1273.026943 137 86 64
-383.739352 -69.740474 792.996931 162 125 112
-387.375808 -158.978844 804.007530 88 64 65
-383.274555 -58.385360 792.633438 125 84 75
-383.274555 -58.385360 792.633438 125 84 75
-383.379126 -73.354667 797.366953 182 139 122
-384.642267 6.196156 791.096449 69 46 42
-243.595123 -30.502003 734.505987 150 114 94
-384.733820 -33.581203 795.910740 144 98 76
-384.445810 -25.003520 795.089054 70 46 41
-386.388993 10.194656 795.164680 187 143 125
-385.274792 5.459258 795.320177 163 125 106
164.071321 93.313819 456.765985 52 34 25
-382.553244 -91.918963 803.621387 96 64 63
-385.959506 -147.062469 813.351345 174 132 112
-385.584855 7.210936 798.925781 68 37 35
-377.594233 49.855033 794.879103 104 67 59
-1107.598305 39.465252 1250.978947 159 117 100
-384.689260 -152.370274 820.468044 161 121 107
-379.359555 16.385050 803.720188 87 68 77
-380.412912 -59.156686 811.766148 100 61 51
-376.881981 53.821129 802.006054 107 74 61
-375.826788 65.373880 802.691746 112 75 67
-379.182172 -51.949632 819.402313 186 139 121
-379.885483 -155.038691 833.483982 144 109 96
-373.923993 58.650172 817.084789 90 59 53
-373.923993 58.650172 817.084789 90 59 53
-469.352627 58.887291 881.507969 152 116 100
-374.844003 30.506605 822.897053 157 121 107
-467.886925 71.026909 890.052891 109 73 64
-266.402578 91.983414 764.469624 151 117 102
-414.579916 -212.923336 890.417385 30 17 15
-370.027637 61.726236 837.778187 85 58 51
-370.027637 61.726236 837.778187 85 58 51
-375.702667 -149.999380 863.992596 105 65 55
-369.648623 63.966590 839.076138 152 116 100
-369.291282 34.786507 842.183208 137 110 104
-375.021768 -143.707585 865.707397 49 39 53
-363.948011 -177.291059 863.712502 105 77 56
-369.140911 54.680997 844.761562 161 119 103
-367.859554 74.784261 846.438217 109 73 64
-116.664624 -69.111454 686.161423 101 71 63
-367.490482 62.546974 851.975727 95 64 60
-367.490482 62.546974 851.975727 95 64 60
-372.637320 -147.005820 879.507446 139 104 91
-1558.166027 -582.320547 1775.514412 137 100 77
-1558.166027 -582.320547 1775.514412 137 100 77
229.058647 72.574586 535.095072 252 250 250
-1560.061169 -320.638371 1752.192307 78 52 62
-366.818118 -179.150534 884.308624 105 75 59
-393.496418 -199.469328 905.787468 143 100 80
-1550.423622 -584.733295 1778.227806 94 55 41
-1549.765396 -595.612288 1779.515457 95 57 43
-1535.240746 -209.872460 1733.828163 70 51 63
-1533.387852 -147.258282 1726.504517 65 37 30
-1533.387852 -147.258282 1726.504517 65 37 30
-1526.297474 -326.141024 1744.112587 61 34 28
-1552.611637 151.905143 1710.472107 137 103 81
-1637.749481 165.816796 1765.677071 135 102 79
-1392.773151 168.235874 1601.892853 137 103 81
-367.949820 21.578364 870.736694 178 133 116
-369.540882 -46.981841 880.177975 108 79 80
-388.930511 -228.448415 915.316772 106 67 61
-387.884068 -214.464664 919.696331 38 25 21
-363.708925 68.405712 873.106003 172 129 111
-36.034903 7.387961 657.651663 145 94 76
-367.904377 -45.238927 889.280605 179 136 117
-1611.011887 191.296434 1775.426865 122 92 78
-1497.413635 -316.538024 1758.866119 74 39 31
-362.816167 66.791731 875.846195 105 68 55
-362.992501 60.138041 877.433205 129 86 71
-368.778038 -75.463641 897.118378 89 58 55
-1507.423115 -253.693104 1774.256516 99 61 53
-1507.423115 -253.693104 1774.256516 99 61 53
-1491.981506 -378.056788 1778.890800 43 22 19
-1488.527870 -385.437226 1777.380180 44 24 18
-382.487607 -0.336028 903.547764 149 108 88
-366.030574 -42.108774 900.515366 111 81 81
-1509.361553 81.625116 1747.445488 48 36 40
-369.129062 -138.935554 914.299393 63 46 55
-485.598612 -259.393501 1017.533493 101 67 61
-365.339398 -44.687048 904.756260 105 68 55
-479.790497 -261.865664 1020.599937 252 250 250
-487.116623 -262.983966 1027.717590 253 249 249
-358.371854 77.607077 893.200207 107 71 64
-480.535412 -259.525943 1030.842400 255 247 244
-481.009817 -255.800390 1032.045841 99 62 53
-485.575342 -262.457395 1037.790585 253 249 248
-49.154380 86.332864 663.961554 144 112 90
-469.123316 -244.798970 1044.510841 84 50 45
-464.926529 -246.013999 1047.377396 252 246 245
-465.570736 -241.015697 1047.885704 83 51 48
-353.936648 81.229562 919.583511 96 61 56
183.966863 58.679104 531.666565 111 80 68
-361.314392 -94.577092 949.844933 153 116 102
-362.670922 -121.965575 955.962849 134 98 87
-10.162624 123.171794 643.396997 161 119 98
-7.942801 126.130044 643.573618 18 14 12
-98.073786 -91.785771 743.356752 30 17 15
-358.971357 -122.718716 963.495445 135 100 85
-8.430030 124.003279 646.573067 238 188 152
-359.276652 -133.775043 968.489170 124 89 75
-353.538084 59.388542 939.981079 163 121 102
-7.662171 123.325861 649.171066 20 11 7
-389.960909 -182.266796 1007.457924 102 69 53
-393.066835 -207.533646 1016.122723 84 52 52
-52.626526 85.163510 695.418835 107 72 62
-388.442349 -204.260826 1019.376659 86 53 47
-375.688505 -192.626274 1022.038841 36 19 17
-352.045965 -61.282611 990.648937 78 52 62
-358.320522 -117.834175 1005.825424 56 29 27
-356.722260 -116.005659 1006.910896 110 78 61
-352.990222 4.282878 987.834454 65 37 30
-358.293676 -100.968838 1006.618595 179 135 118
-351.472235 31.089061 983.731174 67 39 28
-352.798319 -15.276438 992.094517 90 62 44
-65.841103 11.317632 734.938288 108 79 80
-527.399969 -88.955235 1134.474468 66 37 27
-463.959932 -56.149584 1083.144379 66 37 27
-355.911684 -64.270902 1007.570744 193 147 126
-352.673984 1.856505 997.629547 174 130 112
-346.007538 22.008830 989.994240 175 131 107
-444.663954 -44.191822 1071.755600 67 38 28
-351.187205 -38.636446 1004.625607 163 124 106
-529.187870 -87.206322 1153.025913 66 39 28
-355.920053 -101.439559 1022.372723 46 25 19
-356.195998 -94.423270 1021.839237 44 24 18
-356.195998 -94.423270 1021.839237 44 24 18
-505.706787 -49.866155 1131.305599 65 37 30
-354.602408 -64.306772 1017.225266 71 42 33
-350.425267 -38.597926 1011.664104 99 61 53
-350.425267 -38.597926 1011.664104 99 61 53
-371.337104 -87.174010 1035.606766 167 129 114
-349.423075 33.130726 1002.296066 66 37 31
-369.961095 -197.981644 1054.356003 254 242 240
-341.642523 134.686112 985.266590 72 48 37
-348.766708 -25.660905 1017.405415 91 57 45
-350.562239 -55.939502 1023.144722 82 65 74
-362.412643 -220.572948 1065.530014 45 33 36
-355.976248 -155.748761 1064.689827 174 128 112
-348.170924 -99.998802 1054.140377 47 34 32
-347.104073 -258.938026 1083.005619 193 153 119
-346.481037 -255.661273 1094.033241 147 99 61
-436.669350 -137.116933 1163.963699 157 120 112
-328.289914 -81.898117 1066.482067 157 120 112
-330.288386 -244.668126 1092.941666 93 58 33
-326.305151 -81.538093 1067.881203 81 41 32
-328.115273 -149.201167 1079.882431 151 112 89
-322.666764 2.751680 1052.482986 138 104 96
-317.415738 48.606417 1042.467594 55 42 50
-324.160743 -84.161437 1069.382381 159 119 99
-311.077905 159.376252 1020.915604 89 70 78
-307.645369 187.190878 1013.932991 89 74 76
-417.898607 -41.061604 1144.426250 93 63 52
-344.147754 -308.831143 1127.015877 154 96 64
-489.586210 -27.292687 1217.880344 165 122 104
-366.841936 121.816933 1087.353039 120 89 79
-323.559976 -82.495666 1071.827888 85 42 29
-325.537705 -144.730353 1083.203697 166 130 106
-414.160919 -80.656016 1152.953243 152 120 103
-309.630823 130.116713 1030.815220 152 113 91
-310.790229 108.009231 1036.728954 35 24 17
-309.856439 -140.845490 1071.877861 166 130 106
-312.506294 70.727015 1045.668221 48 27 19
-412.318802 -24.909621 1148.950577 121 97 98
-304.414463 147.609663 1027.411747 111 85 84
-303.353381 188.166296 1021.047592 18 11 8
-309.128237 113.467658 1038.190937 38 21 14
-311.487126 67.184907 1048.152351 136 102 82
-314.318466 15.231989 1059.183979 121 97 98
-619.178963 -390.819192 1425.298786 149 104 66
-307.727122 110.336637 1040.142918 127 94 73
-319.084620 -158.446157 1092.131329 99 71 69
-306.968188 119.613719 1038.741589 126 95 72
-310.268140 67.094153 1049.831009 114 92 92
-313.728595 121.456194 1047.459507 120 89 79
-316.562724 -105.117404 1084.397316 103 73 70
-305.042267 121.549368 1039.391613 108 83 83
-315.063763 -50.284141 1075.974846 148 111 89
-315.063763 -50.284141 1075.974846 148 111 89
-317.201304 -147.569573 1094.416142 169 129 110
-300.891948 165.769839 1030.877972 19 12 9
-317.373872 -142.348397 1094.038010 168 132 112
-304.787683 118.079162 1042.743587 120 89 79
-307.292628 68.899268 1053.251362 55 27 23
-307.292628 68.899268 1053.251362 55 27 23
-313.595080 -53.519756 1078.332615 68 33 23
-299.555469 190.804255 1028.452587 171 111 87
-312.599540 -36.696360 1075.530338 69 36 24
-318.316174 -262.719822 1116.582203 190 146 100
-314.786768 -99.429077 1087.356663 159 123 101
-298.884630 193.127739 1027.733326 35 14 15
-257.536626 111.526299 996.194839 39 20 16
-272.584081 111.500823 1012.252808 38 21 14
-309.545302 4.805998 1068.310642 45 21 13
-300.962496 127.180934 1041.624451 149 110 90
-299.044228 148.647559 1036.567116 107 82 79
-406.296873 -23.752533 1160.997963 143 114 97
-302.286863 104.992759 1048.240376 42 26 20
-300.854373 122.729158 1044.665623 43 26 19
-300.854373 122.729158 1044.665623 43 26 19
-300.854373 122.729158 1044.665623 43 26 19
-302.403045 104.847479 1051.014996 39 24 18
-301.003337 116.382599 1048.660660 42 25 16
-298.352408 126.374912 1045.431709 153 115 94
-294.120097 148.510599 1040.356827 85 56 46
-313.801837 -258.656526 1129.217911 200 153 104
-288.764191 150.288761 1042.170429 119 85 70
-313.533521 -239.938712 1129.111290 55 29 18
-309.937763 -137.021339 1109.712029 167 123 109
-287.218714 190.969121 1035.926342 83 75 76
-287.816286 180.092978 1038.606071 87 73 79
-311.465788 -255.984449 1135.968208 195 150 99
-305.508423 -86.343908 1107.938480 76 54 58
-296.543288 26.141435 1086.052990 75 51 45
-287.155008 166.900158 1055.343151 27 15 9
-287.257004 170.961559 1055.770111 24 13 9
-289.340377 160.692358 1062.565994 92 70 55
-324.055362 -208.717990 1168.475056 254 242 235
-323.222017 -208.305907 1167.691422 254 242 235
-478.270054 -63.794261 1310.315228 141 100 85
-288.665938 -76.744425 1126.948547 70 41 37
208.696866 46.060646 568.885183 99 81 85
-276.930046 122.900009 1086.964512 105 76 67
-270.663333 169.677639 1072.504711 50 41 50
-283.731914 -56.479120 1124.073029 138 107 95
-276.369381 127.068019 1085.968304 107 78 68
-275.966930 131.367171 1085.111237 112 81 71
-320.446110 -182.707751 1188.171196 87 44 41
-275.242543 135.605097 1083.965015 112 83 71
-274.700689 140.069115 1083.003235 104 75 66
-288.148642 149.601173 1095.209885 111 83 71
-280.644274 22.603290 1109.014225 63 39 34
-273.434234 152.742743 1080.423355 111 83 71
-272.439027 161.255407 1078.517532 107 79 69
-281.693721 -58.855861 1124.939156 101 64 49
-279.065108 44.679561 1105.302715 74 47 44
-279.065108 44.679561 1105.302715 74 47 44
-273.107457 -57.659692 1126.754189 160 128 109
-272.474933 -77.752423 1131.940365 72 45 39
-272.474933 -77.752423 1131.940365 72 45 39
-271.904826 -69.169247 1130.561733 82 52 39
-271.774602 -61.000645 1129.605389 79 50 43
-267.668772 28.463870 1112.564754 155 121 103
-269.898677 -73.384058 1132.988453 144 107 86
-268.283606 -57.515001 1129.854584 146 112 97
-208.062005 120.471823 1029.657364 105 76 67
-266.015625 -77.934879 1133.762455 79 50 35
-263.981628 -96.274817 1134.878063 66 54 66
-264.904857 -69.579923 1131.825924 86 49 36
-201.644206 155.298758 1019.771576 107 79 69
-212.723875 42.390269 1053.224945 137 104 84
-203.330803 -153.838050 1090.340328 87 44 41
-94.616628 116.256464 935.197163 105 76 67
-30.845428 -30.973396 912.257385 95 61 45
-35.659981 -8.625327 922.498131 57 46 60
-21.581586 -10.236149 902.903175 125 103 100
-19.485994 -16.504958 906.213856 159 126 107
-16.677532 -10.514678 902.879143 160 128 109
255.354619 62.582844 650.900269 57 46 60
324.990630 37.363711 510.907316 147 106 93
288.322234 5.542831 633.668756 255 239 233
-474.018240 -114.376307 330.402827 121 78 66
-473.179054 -112.944150 334.330010 128 89 72
-482.345438 -49.065596 331.890392 107 69 61
-468.760872 -140.134299 337.734890 131 88 71
-485.431862 -22.904575 332.965064 96 62 55
-453.413200 -229.751658 343.405628 51 52 59
-454.243755 -223.576617 343.115520 57 51 65
-480.932713 48.200133 335.581708 78 45 31
-481.374168 -48.892605 336.625338 113 76 59
-481.374168 -48.892605 336.625338 113 76 59
-493.036604 3.364733 333.623600 58 38 35
-436.975145 -360.449433 352.547646 34 28 33
-462.388182 -171.806884 345.326734 163 120 101
-461.799288 -168.721521 346.534276 126 85 74
-466.992712 -140.988219 345.343971 89 56 42
-466.992712 -140.988219 345.343971 89 56 42
-483.754969 -332.833815 348.076963 58 33 28
-467.564249 -137.335074 347.269797 159 121 106
-467.564249 -137.335074 347.269797 159 121 106
-497.038937 44.729006 338.790822 172 128 110
-497.038937 44.729006 338.790822 172 128 110
-462.109184 -162.789977 350.316691 129 85 73
-466.311550 -139.025342 349.324107 163 123 107
-498.770666 61.500299 339.652538 89 41 15
-337.298799 -92.524678 397.672820 113 63 49
-498.418808 63.724810 341.474700 185 124 100
-491.108608 5.876984 344.377279 166 123 105
-497.049904 50.862479 342.958498 48 34 23
-434.694719 -276.674557 362.398124 77 64 59
-497.756767 61.815661 343.564105 67 23 10
-482.654905 -14.165562 348.026109 114 75 59
-464.813137 -141.505837 354.137063 97 70 67
-497.944069 65.343177 343.921995 89 38 14
-497.944069 65.343177 343.921995 89 38 14
-470.433807 -123.112655 353.140235 53 32 28
-481.126642 -21.978778 349.234009 120 79 64
-481.126642 -21.978778 349.234009 120 79 64
-495.076942 54.675186 345.498705 58 32 25
-464.984560 -138.903546 355.754733 154 118 105
-156.542647 49.949685 434.027529 73 40 31
-482.809639 -6.184269 350.217795 99 63 53
-482.809639 -6.184269 350.217795 99 63 53
-495.942450 56.342244 346.824288 143 109 89
-465.404415 -140.175331 356.830668 112 70 60
-462.897968 -152.320623 357.687211 101 65 53
-472.276497 -117.960167 355.468416 82 46 26
-463.473415 -142.834651 358.021998 101 64 54
-381.233859 46.665362 372.758579 67 40 25
-461.004210 -147.408175 362.577724 71 51 56
-461.334610 -149.520743 362.638521 142 107 93
-429.661369 -205.414963 373.020434 119 70 55
-463.041496 -137.615001 362.781191 109 69 57
-463.041496 -137.615001 362.781191 109 69 57
-463.041496 -137.615001 362.781191 109 69 57
-481.676388 -8.134869 356.517458 159 117 95
-488.966465 6.892992 355.568266 68 42 25
-472.255182 -103.810930 361.418581 189 142 125
-460.670042 -147.071147 364.566016 77 60 65
-460.670042 -147.071147 364.566016 77 60 65
-460.670042 -147.071147 364.566016 77 60 65
-479.479456 -14.317763 359.212041 107 67 52
-461.875629 -136.865580 366.885662 109 67 55
-460.705519 -148.699880 367.735624 170 127 111
-460.489225 -144.128215 368.156242 105 67 53
-460.489225 -144.128215 368.156242 105 67 53
-462.543869 -131.588864 369.029236 94 58 48
-462.543869 -131.588864 369.029236 94 58 48
-489.352989 77.029312 360.570526 137 100 87
-460.044050 -143.283856 371.878076 153 116 100
-458.790541 -145.176423 372.451925 75 58 63
-459.945774 -140.555692 372.867823 114 76 60
-459.945774 -140.555692 372.867823 114 76 60
-489.376259 78.650290 362.737346 89 57 47
-460.263109 -137.558186 373.525643 118 73 62
-311.758709 -85.558009 413.641882 123 73 50
-459.671831 -141.891408 374.025846 153 118 99
575.365210 251.461363 516.194773 41 27 25
-461.533785 -132.263517 373.628688 169 125 107
-478.019810 -0.209847 367.953300 73 53 64
-459.308434 -138.663864 375.189090 151 114 102
-483.628845 44.929513 367.886591 99 66 54
-459.590387 -136.506975 377.180123 98 64 59
-442.049217 -251.622629 383.471751 109 82 79
-482.517958 33.686349 369.285250 98 63 51
-461.011124 -133.313406 377.405906 107 74 73
-460.227060 -128.702378 378.540254 145 112 98
-474.716234 -16.526140 373.121524 95 63 54
-474.716234 -16.526140 373.121524 95 63 54
-480.039215 22.727263 371.539283 110 71 56
-444.234324 -242.648649 385.710311 98 60 52
-476.028919 -10.024666 374.209309 81 54 43
-458.977985 -129.571950 380.348468 94 70 71
773.085833 253.124619 543.012524 134 111 116
-463.054609 -297.816634 385.768270 70 33 32
-478.376675 11.619954 374.000478 100 64 51
-469.509840 -52.560699 377.476120 62 48 60
-469.509840 -52.560699 377.476120 62 48 60
-463.121700 -299.957728 387.306571 179 135 116
-463.591671 -296.163511 387.192297 170 132 113
-477.537155 0.369127 375.516653 101 65 52
-483.367300 68.675703 372.747707 90 61 58
1254.589748 508.976221 594.419098 195 150 133
-483.982420 66.866684 374.285626 141 106 93
-462.980032 -297.019672 389.406824 112 64 38
-485.825872 83.876932 373.893452 98 64 50
-462.704372 -298.449898 390.896416 101 58 40
-457.938433 -133.582485 385.953856 139 94 80
-480.315638 44.524732 377.557087 142 109 92
-483.593512 68.546057 376.527882 91 62 52
-450.732565 -208.145809 390.090227 130 80 57
-484.209108 82.119232 376.168323 138 103 89
-462.271261 -295.691991 392.675877 103 58 45
-462.905073 -294.662571 394.003582 157 113 98
-455.271387 -322.323871 396.292305 27 16 11
-473.228979 -5.682301 383.977032 136 103 88
-472.917891 -5.658323 384.088850 136 103 88
-478.337431 37.230816 382.116342 147 113 99
1247.957897 617.923117 579.584980 46 26 20
-475.572062 16.522683 383.304167 108 70 56
-474.661207 1.723589 385.376644 95 63 55
-471.310425 -18.515353 386.776304 94 60 42
-480.492544 81.614417 385.255527 91 59 55
-469.497252 -29.199114 390.926433 156 117 102
-455.328226 -129.739082 396.805954 138 95 76
-455.328226 -129.739082 396.805954 138 95 76
-467.616463 -35.542074 393.843174 89 62 51
-467.616463 -35.542074 393.843174 89 62 51
-525.670290 -328.992009 400.802517 46 31 26
-472.590303 14.661108 394.410276 100 69 64
-462.621117 -64.826894 399.589872 110 67 54
-470.931673 5.713880 396.974492 161 125 105
-474.289131 29.519188 395.743084 106 69 60
-473.448133 27.995402 397.668552 151 117 102
-470.687199 7.269761 398.972464 108 72 62
-469.987011 5.993368 400.986814 154 120 107
-479.164219 99.035966 398.647523 140 109 92
-439.927864 -211.805534 415.916395 154 118 102
-439.053535 -223.254800 417.533398 88 58 44
-418.932819 -258.507228 421.991110 96 74 57
-440.891743 -217.126036 418.701839 92 61 48
-471.350145 40.899324 406.136847 153 116 100
-468.355417 18.791120 409.197187 155 120 100
-472.281885 49.945563 407.662630 95 66 57
-471.123362 42.748505 408.136559 105 70 54
-436.794996 -231.095552 422.960615 108 68 53
-439.095402 -216.724396 422.221184 62 59 73
-439.639139 -213.900113 422.177219 54 47 58
-465.850067 -1.453538 411.898804 141 107 92
-469.745636 27.829802 410.503626 97 66 57
-471.065092 41.153505 410.060310 151 114 95
-476.279068 96.941948 407.522202 120 86 71
-457.820415 -17.673700 414.284849 156 118 100
-474.206495 105.521178 408.254290 93 82 96
-466.901064 5.957026 413.255072 97 67 57
-465.205097 -3.479996 414.016104 78 52 44
-437.344933 -229.564261 426.109600 150 115 99
-739.089346 -90.129119 394.422102 62 65 77
-739.089346 -90.129119 394.422102 62 65 77
-471.568441 86.702186 412.273455 133 98 76
-436.290836 -225.119448 429.209614 50 49 60
-469.874477 75.862813 413.736868 129 94 75
-472.669506 111.564267 412.167358 25 14 10
-469.300938 64.509702 414.797354 128 96 77
-468.691206 53.571689 416.030073 135 101 80
-473.716211 100.662041 413.843298 30 19 13
-470.893431 83.742976 415.862894 38 26 19
-466.648579 42.510125 417.956734 134 102 81
-469.968843 73.541355 416.986895 40 27 19
-469.968843 73.541355 416.986895 40 27 19
-469.053364 67.931640 417.944860 39 24 18
-468.519783 59.990126 418.837643 44 30 20
-468.519783 59.990126 418.837643 44 30 20
-471.090317 87.044358 417.565155 103 75 66
-467.462587 51.407570 419.863081 48 31 21
-471.191359 88.604939 418.114042 54 32 30
734.169912 184.952223 524.090862 45 27 23
-458.632374 -8.281699 424.150896 144 108 91
-465.878820 39.787412 421.707964 42 30 18
-465.878820 39.787412 421.707964 42 30 18
-470.563650 87.645519 420.308161 143 109 91
-470.563650 87.645519 420.308161 143 109 91
-467.846918 65.399641 421.843386 132 100 84
-467.846918 65.399641 421.843386 132 100 84
-437.339640 -205.350852 439.664602 60 57 71
-458.007765 -17.467371 430.309391 54 34 33
-437.048388 -201.984859 440.635777 105 74 75
-460.635519 10.658136 429.578352 136 102 92
-459.202814 -11.964419 431.373119 124 93 80
-470.262384 102.034831 426.678467 140 107 92
-468.879557 88.876146 427.997971 154 117 96
-468.724632 88.832653 428.058481 154 117 96
-459.301567 -10.059206 433.841133 86 53 38
-433.455753 -221.608329 445.687580 61 57 71
-433.455753 -221.608329 445.687580 61 57 71
-456.884098 -27.067322 435.432529 144 106 94
-434.413147 -211.972594 446.911716 143 107 94
-468.790531 90.449357 430.096960 101 65 54
-462.761641 31.358838 433.454895 95 63 53
-464.133549 44.862440 433.232212 155 117 97
-455.678034 -33.702141 437.964869 144 110 97
-467.959356 88.968271 432.174015 151 119 102
-459.043312 9.898359 436.694860 99 67 62
-463.922834 46.810794 435.287476 104 64 52
-459.301043 2.309482 438.722134 145 111 94
-440.367413 -157.748795 447.666979 52 33 22
-440.367413 -157.748795 447.666979 52 33 22
-456.072092 -27.596354 440.719223 97 64 51
-449.175119 -84.883964 444.895840 152 117 103
-459.912920 9.798501 440.122795 96 64 50
-461.308241 22.923568 439.706421 159 124 108
-455.207396 -33.303967 442.803288 113 73 59
-447.067404 -103.494632 447.325850 149 111 100
-445.776606 -114.165592 448.398495 156 117 105
-455.167723 -30.654550 445.313692 148 116 106
-428.609943 -230.509877 457.029104 35 18 11
-428.609943 -230.509877 457.029104 35 18 11
-432.360983 -211.309385 459.167051 131 98 86
-436.272144 -184.120023 457.769966 156 118 105
-462.255192 64.936662 445.046425 149 113 98
-430.812502 -219.492960 461.485863 134 98 84
-464.213657 88.345307 444.466352 90 60 53
-429.287004 -230.602551 462.686968 115 81 70
-460.108900 42.947993 447.717428 156 120 100
-457.701302 22.850084 448.955631 99 64 57
-431.039715 -214.749789 463.509417 100 66 53
-432.533550 -208.501863 463.748026 93 62 50
-451.630831 -42.101151 454.592800 113 80 71
-459.195328 37.454909 450.325775 104 67 54
-457.591581 22.819765 452.635098 99 66 56
-459.066725 35.764930 452.011013 157 123 107
-429.779005 -222.860789 467.643785 100 64 50
-430.206680 -220.931768 470.726013 152 113 100
-459.318161 79.113525 455.435181 94 63 57
-460.990191 92.119765 455.246687 153 115 100
-429.177713 -216.508937 473.867846 56 59 70
-427.007484 -223.372197 474.810505 142 106 88
-450.380039 -25.046685 463.106012 62 65 77
-450.380039 -25.046685 463.106012 62 65 77
-435.538960 -163.844144 471.452141 113 79 69
-458.721352 70.075148 458.152151 151 110 98
-461.931849 107.405448 456.328535 84 58 52
-460.382938 93.721557 457.251787 104 68 54
-457.149935 55.746573 460.010672 154 117 102
-458.268690 72.031033 459.862566 99 63 53
-453.119040 13.734417 463.831377 99 66 59
-452.874041 12.128220 465.378714 154 119 104
-452.011538 6.603102 465.934229 153 116 101
-455.805635 48.893172 464.156199 155 122 107
-453.028297 13.856396 467.247772 99 65 56
-428.391314 -215.384579 481.163645 55 59 69
-454.062176 26.875532 466.816759 160 124 110
-1112.780857 -104.581738 453.028679 97 64 55
-451.023436 5.024561 468.152952 90 60 48
-415.603399 -252.130055 484.017706 112 80 67
-415.603399 -252.130055 484.017706 112 80 67
