ply
format ascii 1.0
element vertex 1088
property float x
property float y
property float z
property uchar blue
property uchar green
property uchar red
end_header
-153.958988 27.108830 142.446971 101 68 62
-154.066503 17.598662 144.199860 159 122 106
-154.491365 6.642967 145.530963 112 74 66
-153.974342 13.003938 144.979191 148 114 100
-154.337645 27.251509 143.785655 100 65 59
-154.115283 20.396577 144.660389 102 67 60
-154.045880 -66.381139 153.792465 56 48 62
-154.099250 6.676151 146.651042 109 73 66
357.109118 131.827974 -36.572650 146 107 91
-210.742712 -120.676875 179.083228 139 101 90
-162.959516 -5.277056 151.253510 169 126 111
-162.959516 -5.277056 151.253510 169 126 111
-154.116893 3.849079 147.353303 159 125 109
-98.556513 30.787101 126.774728 94 65 65
-151.301742 32.403728 145.023644 145 112 99
-151.301742 32.403728 145.023644 145 112 99
-151.167119 28.261298 145.444453 153 116 97
-150.965178 23.704699 146.161342 148 114 97
-150.736582 14.598469 147.237647 161 123 106
-151.103485 3.653051 148.552763 110 71 65
-150.966632 28.768700 145.994282 108 71 59
-151.039362 33.122122 145.688057 90 64 61
-151.128697 24.215575 146.840549 100 68 61
-150.936639 17.466564 147.737610 104 68 60
-151.175201 28.341925 146.682465 145 114 95
-119.171453 36.659771 136.443925 24 18 17
-148.617733 -39.820376 155.407465 121 85 78
-147.479188 18.556868 149.240363 152 113 100
-147.712314 25.806752 148.963606 108 71 57
-147.903669 28.088325 148.915851 93 58 52
-147.308969 12.282427 150.777805 112 75 65
-147.033763 -65.266776 159.260368 82 72 82
-147.174275 11.719645 151.320183 149 115 97
-145.569432 28.280306 149.412799 95 63 59
-145.709240 24.881831 149.955714 101 69 64
-117.916608 35.687357 138.870859 27 21 22
-145.378387 7.886492 151.955068 109 73 67
-145.624197 28.045830 150.249183 140 106 92
-145.585465 2.600701 153.613555 170 131 115
-145.524347 27.541468 150.926971 59 44 67
-10.549553 12.425394 102.923238 92 61 53
-144.527137 29.601642 151.113021 103 66 59
-130.392408 -3.416999 150.741696 156 116 106
-117.579699 34.780160 141.714466 22 17 15
-9.528220 -5.827394 105.622530 102 66 51
-137.510300 19.874901 151.667094 147 115 105
-137.510300 19.874901 151.667094 147 115 105
-141.977429 -37.742659 160.430002 177 134 117
79.480773 19.994786 82.302946 91 56 43
-143.918455 -29.725006 161.154270 152 116 101
-143.918455 -29.725006 161.154270 152 116 101
-142.731380 -24.539180 160.531569 94 61 50
386.622739 73.127991 -55.665177 58 38 34
94.153816 18.909323 76.978213 148 113 105
339.529753 60.520148 -36.129716 79 49 40
231.752896 56.970072 5.899756 134 83 61
26.337942 14.924881 100.276136 98 63 53
-142.151976 10.426056 157.186210 77 48 35
-141.258562 -25.796917 161.194563 187 140 122
231.441283 62.692201 5.164017 190 144 126
231.441283 62.692201 5.164017 190 144 126
386.357760 81.144702 -57.789588 43 23 21
-214.108801 -133.298707 203.968430 108 68 64
383.209825 76.932532 -57.523245 143 96 74
-138.344252 -40.638939 163.281500 123 84 71
385.472679 35.549536 -54.031128 183 139 123
-139.691281 -31.418476 163.137066 42 21 19
-137.886620 -35.389802 163.258231 186 142 125
-138.407230 4.249223 158.810091 103 67 61
-138.407230 4.249223 158.810091 103 67 61
-137.830901 -40.006718 163.804865 190 149 133
-139.600790 -18.785113 162.267601 199 154 135
-139.376986 -25.506493 163.102555 202 156 137
381.539536 116.467059 -62.748986 138 89 68
381.349516 117.887235 -62.870860 140 91 68
232.199264 20.575702 8.306719 37 24 25
232.199264 20.575702 8.306719 37 24 25
-137.072718 -34.508914 163.705301 121 82 73
-137.126470 -40.523055 164.445364 130 89 76
-119.925606 -3.473708 153.329647 44 29 23
381.720304 81.044888 -59.506488 54 28 27
63.372386 18.613648 88.500500 91 56 43
-136.379051 -37.383464 164.430606 123 82 70
-136.379051 -37.383464 164.430606 123 82 70
375.791693 24.005048 -50.656050 154 120 99
-136.321735 -18.753859 163.038337 91 56 43
-135.915303 -37.015954 164.908946 159 123 112
442.955875 92.537785 -87.410921 135 93 70
-136.254275 -68.090647 169.072723 80 56 63
378.515387 117.546129 -63.999712 139 89 67
380.530572 80.168879 -60.808790 40 24 22
-135.340905 -35.172513 165.410113 123 85 79
379.768085 79.057604 -60.738283 158 114 92
-137.424707 -28.629568 165.577030 174 130 110
267.645168 56.233281 3.633884 167 126 105
377.701020 112.599576 -64.460504 187 142 124
-134.625101 -70.987064 170.058525 146 109 92
-97.064084 38.465834 141.402328 73 57 51
-133.966684 -60.623944 169.637322 188 144 125
-134.011960 -31.022355 166.663468 137 116 121
-115.097070 5.831508 154.457724 119 92 110
-1803.416824 -169.793081 895.915699 67 77 87
-131.849337 -45.925230 168.829727 83 55 63
-131.794798 -15.714997 165.946734 157 121 108
-112.396049 -7.810625 157.880747 147 120 112
-111.781478 -4.789216 157.887220 110 77 71
-111.961985 -5.799147 158.116353 82 58 54
-129.460764 -14.297557 168.072462 114 76 65
-128.146088 -32.817522 170.372486 88 62 58
-128.264058 -29.885063 170.232713 79 54 50
1845.473671 407.532501 -765.571070 88 93 101
-109.716785 -4.552664 159.026408 120 85 74
-123.978591 -8.739202 165.983403 97 70 59
-123.978591 -8.739202 165.983403 97 70 59
-124.951494 -7.497492 166.258514 73 55 57
-128.289509 -23.599143 169.831455 70 61 67
-127.803028 -27.637005 170.328736 55 44 48
-115.287387 2.675731 161.546969 15 16 16
-123.280001 -11.114781 167.057133 132 106 93
-126.693857 -27.700698 171.778035 62 47 49
-125.778592 -13.954575 170.659459 134 110 118
-122.298610 31.259379 164.089215 90 62 49
-123.330033 -44.245517 174.875963 58 28 42
-122.680974 -38.607740 174.147379 77 74 84
-122.863841 -44.978657 175.763559 81 50 68
-104.965639 -5.995046 162.248361 148 116 101
-122.856855 -59.853870 177.869737 79 69 81
-121.497035 -27.328628 174.331284 38 40 48
-122.134840 -35.538137 175.969553 158 124 111
-120.282888 -43.022448 176.427865 188 150 135
-120.173836 -43.665752 176.988232 136 92 95
-119.729996 -66.576570 180.282450 145 109 97
-120.106530 -29.353565 175.481439 36 29 42
-120.106530 -29.353565 175.481439 36 29 42
-119.927919 -40.321904 177.754879 128 95 83
-118.717968 -34.969184 177.967370 106 111 115
-118.613613 -39.293605 178.755629 54 50 53
-120.488727 -19.731615 177.019644 95 75 91
-120.667458 -21.399620 177.871561 175 136 126
-120.667458 -21.399620 177.871561 175 136 126
-117.337394 -41.851154 179.212475 50 29 42
-120.561111 -13.011128 177.139652 188 144 130
-120.503795 -16.712481 177.715790 191 145 129
-117.697990 -41.059449 179.992819 107 111 113
-119.181681 -24.034891 179.609036 152 115 102
-116.281557 -41.196051 180.616355 51 52 65
-116.372550 -42.852181 180.991256 62 53 65
-116.940057 -45.720905 181.784284 138 91 74
-116.940057 -45.720905 181.784284 138 91 74
-117.510796 -7.926921 176.814663 117 83 70
-117.510796 -7.926921 176.814663 117 83 70
-118.704808 -20.202917 179.163921 139 97 85
-116.571701 -33.392590 180.325472 108 121 125
-118.439555 -23.274185 179.996347 158 124 109
-114.962912 -44.254303 181.218851 181 137 123
-116.889668 -7.001529 177.013648 194 151 133
-116.684783 -8.954747 177.226400 199 153 132
-114.543152 -14.675243 177.602494 64 29 21
-114.983165 -35.051185 181.259525 100 108 113
-115.917170 -9.296553 178.162384 104 72 61
-117.224455 -22.845161 180.783093 192 147 130
-117.108011 -47.653350 185.039794 135 87 70
-112.596881 -44.692820 182.325947 160 140 138
-114.771974 -40.169814 183.782363 125 95 85
-114.179504 -32.879889 182.505083 161 121 107
-114.179504 -32.879889 182.505083 161 121 107
-115.227270 -21.024422 181.665742 197 148 130
-115.998745 -13.405827 181.085932 204 154 134
-114.707136 -46.438789 185.151434 212 166 146
-115.433073 -26.410490 182.685637 148 114 97
-116.199350 -20.182945 182.221568 170 129 110
310.768270 98.540211 -58.436143 197 149 129
-114.745951 -24.415268 183.046627 46 22 13
-114.645374 -17.624900 182.418394 206 159 139
-113.615787 -46.646777 186.082530 136 87 64
-112.712026 -31.807891 183.613896 79 57 52
-114.617407 -25.914162 183.824670 52 28 24
314.205098 117.452872 -64.665407 109 62 50
-111.690867 -34.028205 183.918595 48 46 51
-105.307567 -30.200619 180.137885 108 79 66
-113.952243 -17.524317 183.357716 52 26 19
-113.499689 -25.787017 185.030270 34 20 18
-66.376770 -2.875158 156.433332 121 96 84
-113.196635 -15.764730 183.725739 188 148 129
-113.196635 -15.764730 183.725739 188 148 129
-113.077366 -11.409321 183.052671 189 148 128
-114.317548 -18.567359 184.807539 206 159 141
-111.072409 -26.570868 184.445930 98 85 99
-66.565669 -0.214057 156.490147 118 83 74
-112.228024 -20.187658 184.229970 154 111 100
307.069182 99.250102 -60.762095 63 45 56
-66.677684 -0.322555 157.156014 194 151 133
-112.007260 -23.063396 185.203183 151 114 102
-112.512612 -14.236027 184.173930 59 36 30
-109.682441 -33.228526 185.617352 160 126 114
-127.817726 -88.306600 204.076958 78 48 38
-111.504030 -24.385183 185.859239 123 94 93
-109.052074 -33.965096 186.113715 48 45 48
-110.847890 -22.831555 185.586703 77 43 41
-92.951715 3.918745 171.944630 63 74 79
-92.951715 3.918745 171.944630 63 74 79
-94.187647 32.609522 168.542147 95 101 103
-108.375895 -38.425669 187.321198 40 33 34
-107.953334 -39.213061 187.330925 98 113 115
-108.397460 -42.436239 188.087082 80 57 70
-108.010757 -30.889916 186.307466 97 112 116
-108.645535 -23.394334 186.024320 72 60 66
-91.426390 33.917052 168.011594 99 88 110
-91.674292 4.050475 172.655046 74 86 92
-118.959606 -86.290038 201.732373 112 78 64
-106.167400 -34.906256 187.469518 202 163 143
-106.935811 -27.585638 186.838830 34 34 49
-91.187412 -1.152308 174.024212 116 101 126
-105.753911 -33.842984 187.312984 201 160 143
-106.965446 -30.715179 187.731874 82 90 99
-105.854630 -39.970461 188.722098 104 63 54
-105.768156 -38.283113 188.853669 171 132 117
-106.815696 -30.140513 188.292027 52 44 47
-106.005573 -31.185985 188.724256 47 50 58
-105.227816 -35.653588 189.871609 80 83 91
-104.767215 -39.085922 190.191686 194 154 136
-104.716289 -34.759387 189.499056 40 37 45
-105.342460 -37.704194 190.359116 73 50 49
-104.921329 -40.110391 191.032314 60 37 54
-104.859400 -32.085094 189.787877 134 104 94
-104.859400 -32.085094 189.787877 134 104 94
-104.546595 -33.698350 190.015638 51 36 41
-103.983903 -67.182064 194.867229 145 107 95
-94.620377 -4.676094 180.028355 134 105 99
-104.287612 -56.793767 193.838716 87 78 85
-94.674784 -2.579063 180.531359 87 61 55
-108.840454 -4.047618 189.002478 77 58 57
-122.890532 -89.071858 210.942173 146 111 92
-92.637926 -6.664621 180.470228 63 47 58
-94.022131 -3.023752 181.125319 135 105 90
-107.936668 -7.249722 189.941216 106 84 74
-103.042114 -36.585522 192.065215 101 62 75
-103.447831 -8.676128 188.492203 136 115 123
-106.312275 -6.280693 189.856541 64 46 43
-102.618933 -24.882983 190.808964 96 94 97
-102.611911 -35.934001 192.708123 123 102 106
-102.250206 -35.292029 192.904234 81 61 65
-94.037354 -0.619158 182.801998 140 109 102
-89.030576 1.383894 179.726887 49 35 28
-96.211708 -1.896079 184.727108 76 54 56
-95.330954 -4.963684 185.656285 98 79 72
-99.563813 -66.606754 198.345184 132 98 86
-96.150428 -1.460711 185.907614 73 53 52
-100.508881 -24.441171 192.622721 93 97 102
-100.163603 -26.559985 193.086767 88 93 101
-98.963016 -67.207628 199.117577 51 37 43
-97.813451 10.113709 186.336815 80 71 96
-99.327326 -7.194466 191.674674 170 132 126
-98.444885 11.194659 188.611352 51 35 33
-96.545070 -63.441664 200.703478 148 110 97
-97.472757 -8.485802 192.912853 165 125 115
-98.132819 2.605429 191.590023 44 36 57
-98.132819 2.605429 191.590023 44 36 57
-98.064685 11.378836 190.614200 82 53 51
-97.678369 -5.255093 193.354249 170 132 122
-98.180884 18.226850 190.041351 87 60 59
-97.517115 8.592781 191.681683 76 51 47
-97.367781 -4.430987 194.306898 72 54 67
-97.397578 34.216976 188.793766 49 36 54
-96.571219 12.819646 193.286955 47 37 50
-96.571219 12.819646 193.286955 47 37 50
1433.038425 527.025223 -885.114956 134 85 62
1437.571430 520.620680 -887.917995 190 144 126
1437.571430 520.620680 -887.917995 190 144 126
1454.774952 448.725462 -887.930107 134 83 61
-97.009236 16.272773 193.423784 164 127 113
-92.667729 -64.381307 204.409242 150 112 99
-93.658292 -29.861826 199.600863 120 90 90
-94.321775 -24.835815 199.253047 58 42 36
-96.387476 13.931757 194.223118 46 29 25
-93.468994 -30.950782 200.027537 107 84 88
234.245896 62.832665 -30.366957 172 128 107
-96.434784 15.483935 194.429481 42 30 29
1432.881451 435.147095 -880.173111 187 138 122
-97.133332 31.873336 192.464495 39 28 19
878.535366 311.954904 -498.721790 195 148 131
-95.232129 14.153828 194.816029 41 24 20
-91.771269 -61.078531 205.526543 90 65 66
-91.771269 -61.078531 205.526543 90 65 66
1626.644707 125.279152 -963.359547 127 84 71
-92.228007 -32.134888 201.185060 108 77 76
1420.745754 441.657162 -882.041931 132 83 57
-95.232987 14.572018 195.210648 115 89 78
-92.340565 -57.389861 205.876827 138 89 68
-92.212933 -27.770883 200.822163 128 88 76
-92.212933 -27.770883 200.822163 128 88 76
-95.879340 33.346555 192.716825 171 132 117
-93.791837 41.805074 189.876664 28 20 26
-136.978209 16.130419 223.375201 87 53 44
-93.370128 -19.850367 200.657415 150 105 79
-93.303627 -19.806638 200.618768 150 105 79
-93.465805 -13.101418 199.573779 58 39 36
1403.220081 549.075031 -896.989918 197 149 129
-92.655629 1.239907 197.167706 143 99 90
-91.367221 -28.272364 201.500201 188 145 126
40.971631 6.216749 107.184386 167 134 119
-92.557865 -11.688456 200.454807 202 157 137
-90.791768 -61.281997 207.997751 81 59 64
-90.101594 -39.496854 203.795671 113 95 99
-90.525198 -27.537531 202.070117 130 89 79
-91.759890 -24.692342 202.582717 54 28 27
-92.915505 40.506050 192.267632 55 36 32
-92.224950 43.346927 191.370583 24 17 19
-93.407482 20.266557 196.266699 182 138 121
-93.407482 20.266557 196.266699 182 138 121
-83.454686 -70.569342 205.720234 121 88 69
-89.807355 -32.509464 203.608704 127 90 77
-91.548878 -19.479775 202.545595 150 103 81
-91.359496 -16.638704 202.073646 47 28 25
-88.004029 -63.218898 208.390522 106 68 58
-90.280312 -41.171587 206.303835 188 143 128
-88.872248 -32.733428 203.952932 110 71 62
-91.214114 -24.018183 204.050922 40 24 22
-90.879714 -7.718056 201.174760 88 55 45
-90.221214 8.156310 198.316216 120 79 66
-90.625441 -21.464333 203.912234 183 138 117
-90.500259 -8.231190 201.681185 171 133 114
-88.657874 -52.459139 208.282375 138 88 66
-88.657874 -52.459139 208.282375 138 88 66
-88.460124 -24.050750 203.256798 64 47 44
1366.793442 427.928352 -882.315636 130 81 55
-92.084450 31.879255 195.914519 79 27 24
-90.830070 -5.697306 202.007318 104 59 48
203.910708 46.164462 -6.769424 65 39 26
-91.637963 20.629792 198.031521 176 133 118
-91.637963 20.629792 198.031521 176 133 118
-90.263826 -9.279722 202.492785 85 55 43
-90.803725 14.924659 198.849237 82 53 44
-91.087711 32.273039 197.104824 17 14 9
-90.410453 34.102046 196.324444 174 130 119
-90.410453 34.102046 196.324444 174 130 119
261.251211 48.623145 -52.797842 150 110 98
261.251211 48.623145 -52.797842 150 110 98
261.194706 47.468740 -52.551860 150 110 98
-86.854637 -28.125954 205.286670 102 62 51
-87.105548 -23.919985 205.045605 138 117 119
252.227569 52.352756 -31.360692 158 121 103
-88.787240 31.084207 198.732603 129 98 98
-86.591899 10.139572 201.012659 96 64 52
-86.625582 9.468609 201.581860 111 76 64
-87.237865 36.297426 197.500002 141 108 95
-77.738488 -69.517702 210.341573 90 66 49
-86.713642 23.409174 199.944997 108 68 63
-86.555099 26.706100 199.335766 106 69 60
-86.748040 30.053362 198.976612 103 70 64
-86.637753 33.424589 198.337996 95 62 55
-85.398906 13.975982 201.706195 159 122 105
-82.345766 -58.976710 213.178086 76 67 80
-85.271358 27.369988 199.556220 151 115 97
-85.668916 34.074852 198.839140 145 111 93
-85.262531 30.113158 199.610889 97 66 60
-81.495792 -54.978240 213.287139 87 77 85
-82.325649 24.466938 202.677059 153 118 102
-81.962138 18.428633 203.983903 110 71 63
-82.546473 37.829065 200.754023 150 113 98
-82.240146 31.750384 202.128601 97 63 54
-81.707925 20.188157 204.202843 159 121 109
-132.064748 -120.212173 270.015049 253 255 253
-81.394196 20.776217 204.530334 109 71 66
1318.701649 -66.328996 -847.580624 149 114 94
-79.416412 21.572995 205.830669 158 122 104
-75.841898 -59.520656 219.185615 153 118 101
-75.493437 -59.373224 218.949890 153 118 101
-77.007008 7.035503 207.389975 171 127 114
-78.532469 15.077573 207.574391 164 128 109
-74.591255 -57.063890 219.053626 105 112 116
-74.636817 -57.097423 219.128847 105 112 116
-74.720109 -53.757858 218.599272 53 49 68
-74.720109 -53.757858 218.599272 53 49 68
-74.992239 -52.512985 218.705559 58 57 72
-78.907865 28.490049 205.808568 157 122 101
-74.862206 -0.329615 209.186316 128 93 85
-76.861370 2.336938 210.658455 136 114 111
-76.861370 2.336938 210.658455 136 114 111
-73.263472 -51.827699 219.893813 63 58 77
-72.321117 -58.912820 221.553683 115 74 61
-67.151976 -67.929840 219.393849 96 70 60
-76.671624 38.699809 205.959249 152 117 95
-75.159997 9.109651 210.988450 93 52 42
-75.986826 32.275084 207.897687 154 118 103
-67.909557 -69.741511 222.417545 111 78 61
-69.215107 -36.817616 221.422982 87 58 62
-72.958076 31.494683 210.441566 151 117 103
-71.257371 12.249679 213.376760 97 66 58
-72.982049 36.079851 209.914589 151 115 97
474.780273 122.464287 -270.794463 121 79 67
-69.819152 -27.595469 220.849466 128 86 73
-71.780103 18.760507 212.816381 112 76 70
-71.780103 18.760507 212.816381 112 76 70
-69.439465 -27.511302 220.583940 128 86 73
-69.439465 -27.511302 220.583940 128 86 73
-68.975663 -36.586037 222.430515 88 71 84
-63.832831 48.374912 200.523615 153 122 104
-71.127814 13.502252 214.167690 173 130 111
-69.911313 -0.800594 216.560888 72 52 65
-70.601916 10.793137 214.939642 110 73 66
-71.822941 38.942572 210.256505 92 62 58
477.555513 223.440957 -299.786425 23 12 7
-68.064481 -41.869646 224.947476 132 82 60
-67.395550 -52.071470 226.573968 134 85 62
-68.564379 -22.214992 221.242046 58 44 55
-70.037866 15.424335 214.692330 84 63 76
-343.889952 88.334829 436.964273 149 115 101
-66.578114 -54.316658 227.735734 172 129 111
-67.224193 -25.205755 222.154093 108 81 82
-70.483047 40.175712 211.377788 98 66 61
-68.655282 -13.364524 221.403885 37 23 22
-68.913180 -9.418599 220.990181 68 44 32
-66.861504 -37.701768 225.448537 187 138 122
-66.984469 -86.773771 236.560082 142 93 76
-71.958083 -77.890801 239.257717 109 63 50
460.298586 175.639319 -280.981827 120 72 54
-65.537483 -51.954669 228.142381 134 85 63
-67.494905 -21.344966 223.222303 126 92 79
-66.336983 -38.439786 225.955319 132 79 58
-61.837530 48.435938 203.283191 68 47 55
-69.737506 22.576042 216.581273 72 47 40
-68.218803 -84.015858 238.940239 39 23 21
-65.321362 -24.044658 223.714495 118 78 67
-70.701599 -76.519024 239.959097 163 120 97
-64.856750 -29.777554 224.564362 120 75 64
-64.856750 -29.777554 224.564362 120 75 64
-65.883386 18.394387 214.981413 70 46 41
-66.860789 -13.154595 222.977328 37 24 20
-68.607676 23.994808 216.927075 169 129 112
-68.607676 23.994808 216.927075 169 129 112
-64.701176 -25.397062 224.315906 140 94 81
472.524023 37.736419 -267.612934 128 82 71
-64.419287 -29.062629 225.034857 189 143 126
-64.370245 -24.588205 224.256611 187 140 123
-64.370245 -24.588205 224.256611 187 140 123
29.743087 -4.638145 136.311734 113 95 99
455.160713 165.278482 -282.282305 185 140 121
-66.269982 15.004015 218.266034 107 71 64
-67.763859 22.781165 218.030715 76 50 44
-68.896008 -76.142621 241.041589 136 92 74
-66.230196 -1.596655 222.268176 194 148 129
-67.671001 26.767835 217.368293 63 44 40
-67.715442 27.190164 217.809558 51 37 35
-61.152309 -61.462831 231.635690 40 27 33
-23.840037 -31.109309 193.164253 177 132 110
-65.519911 14.164472 218.925524 179 131 114
454.324865 165.430951 -284.535861 186 140 122
-64.704114 -2.030634 222.491002 20 6 7
-64.138615 -87.754327 241.486382 254 254 254
627.217674 223.959517 -456.209612 121 69 53
646.137762 218.830800 -473.667145 108 59 46
-64.030057 -18.339336 226.038575 65 37 25
30.944923 -10.498257 138.067019 138 88 66
30.944923 -10.498257 138.067019 138 88 66
-63.708705 -17.775993 226.394224 173 133 114
-63.708705 -17.775993 226.394224 173 133 114
-59.947997 -56.920636 231.901360 63 45 56
-64.017028 -14.426555 226.103497 174 128 110
-62.159830 -38.477838 230.017161 130 81 55
463.340378 220.593882 -310.459876 16 10 5
463.340378 220.593882 -310.459876 16 10 5
-54.374379 31.920466 207.655263 39 22 23
-37.389579 -11.284814 201.566291 65 30 26
-63.503110 13.132098 220.807385 162 122 104
-60.945588 -21.095160 227.247787 73 53 58
-65.152264 24.577120 220.789766 171 129 111
-60.499316 -23.686130 227.524090 175 136 116
-64.280647 19.110706 221.467566 64 41 47
-33.949381 28.477529 191.859245 77 46 41
-59.941363 -24.559209 228.125763 107 69 56
-64.216864 44.737491 216.355491 143 109 93
-59.361160 -34.553239 230.231762 98 68 69
-34.050879 30.978230 191.557264 77 46 41
-59.646887 -26.612881 228.856134 125 81 69
-64.061993 23.355840 221.565199 76 52 46
460.975552 1.956664 -268.752956 37 25 24
-54.070872 -60.255313 236.837912 45 33 41
-54.586089 -55.445474 236.620998 60 59 69
-59.837240 23.934783 222.968459 99 65 57
-59.837240 23.934783 222.968459 99 65 57
-59.177780 17.196767 223.960638 109 71 65
-59.427696 20.609944 223.611307 103 65 57
-60.081005 30.627835 222.003531 101 62 57
-60.049313 37.315783 220.938444 92 58 54
-100.692785 -113.847864 297.422433 102 66 58
-53.904605 -51.488632 236.872149 78 61 69
-58.369017 24.060103 224.045873 99 70 64
-57.581121 24.324736 224.905491 97 62 57
-58.175731 37.114960 222.713542 142 110 94
-57.525897 30.968079 223.864889 95 65 59
-58.054471 41.670689 222.069478 149 113 92
11.544032 39.838251 153.621924 153 122 104
12.217188 40.142182 154.091704 66 46 43
-46.059373 50.801891 210.919094 59 41 37
-55.053210 27.498743 226.652718 151 116 99
-55.676115 39.055976 224.691105 88 59 53
-47.161391 49.461254 213.897347 136 101 85
-46.770149 51.069617 213.647151 61 37 36
-47.482467 43.850818 216.251326 90 56 61
-81.160671 -99.721974 287.079763 147 109 91
-52.131534 15.523997 230.523324 88 58 52
-51.706332 16.223224 230.862164 151 113 94
-51.706332 16.223224 230.862164 151 113 94
-45.858490 -56.930107 243.401670 31 16 13
-52.860302 35.513422 227.324963 149 113 94
-44.969341 51.357555 215.067935 150 120 99
-52.694476 36.153734 227.744508 94 62 54
-44.557709 -57.246429 244.020128 108 76 65
-51.874787 31.845537 229.116106 93 60 53
-51.952928 38.515523 228.092313 90 57 50
-50.052011 8.498899 234.960127 138 104 90
-50.032800 32.654011 230.581784 146 108 90
-45.776129 22.850093 229.472947 110 81 72
-48.865536 26.175329 231.850052 110 81 72
-49.423516 29.498541 231.641293 132 97 82
-47.956240 15.571968 233.827567 38 25 19
-48.016229 18.713138 233.264017 37 27 20
-43.072054 29.325494 225.796223 110 81 72
-47.678506 29.661763 230.692911 119 90 67
-47.678506 29.661763 230.692911 119 90 67
-48.235199 28.676698 232.009053 35 23 18
-48.341373 30.828840 231.628418 35 23 19
-48.146859 35.456795 230.485535 109 80 58
-48.146859 35.456795 230.485535 109 80 58
-48.260233 33.975571 231.165218 32 21 15
-48.501703 36.830828 230.741477 34 21 21
-48.588765 38.714105 230.607200 32 20 19
-46.496230 3.548846 238.009453 149 114 96
-43.260187 -38.447970 245.684195 100 70 64
-45.823383 3.643069 237.407684 149 114 96
-47.274449 29.636577 232.361650 127 92 74
80.931187 1.534129 97.056508 108 68 64
-41.658619 -47.904506 247.457933 60 56 69
-27.991623 32.055613 213.261604 122 89 72
-33.053279 29.339507 220.103526 138 106 89
-47.327298 43.140453 231.593943 137 101 85
-45.546418 19.267023 236.196184 99 65 60
-46.801209 36.988574 232.893324 89 58 50
-47.006518 39.181647 232.578683 82 55 51
-46.105915 30.010271 234.409022 151 112 93
-46.459618 38.752562 233.071518 140 107 86
-36.499634 52.472281 220.765352 59 37 39
-43.489212 22.847657 237.405705 93 64 59
-44.279259 33.562124 235.781384 147 109 92
-43.825689 34.139279 236.028957 97 61 55
-43.878964 36.223549 235.523272 90 62 56
-36.109483 -53.453475 252.888560 136 102 88
-43.383127 36.469203 236.664844 87 56 49
-40.436003 8.740423 241.849160 81 54 48
-40.181035 10.860952 242.086649 156 117 100
-40.846628 23.883627 239.822149 151 114 96
-113.494909 -138.310337 373.710012 254 254 254
-40.851009 33.420989 238.703966 87 60 53
-40.129587 30.898201 239.574528 149 112 89
-39.690390 26.918954 240.457439 94 60 58
-40.078822 33.621877 239.651752 86 56 48
-32.163626 -57.127273 256.818199 40 27 33
53.141069 -19.440293 141.340828 142 93 76
-35.307211 -18.674828 249.984670 90 65 78
-33.929640 -47.408822 256.753707 117 71 53
-34.000337 -46.019658 256.644440 181 137 120
-33.947581 -44.452819 256.237888 115 70 48
-33.947581 -44.452819 256.237888 115 70 48
-37.590620 -74.178296 269.660640 87 53 36
-34.372398 -34.440732 254.977655 114 66 44
-34.372398 -34.440732 254.977655 114 66 44
-37.985462 23.789941 242.470384 99 66 56
-35.891032 22.131599 240.453577 94 62 53
-32.991531 -49.473554 257.855964 162 117 97
-21.403678 -37.764639 242.545152 172 128 107
-32.991531 -49.473554 257.855964 162 117 97
-36.170468 4.153296 246.474218 63 44 52
-36.170468 4.153296 246.474218 63 44 52
-34.708214 -17.256519 250.972605 62 44 58
-34.708214 -17.256519 250.972605 62 44 58
-36.921033 -73.032027 270.312905 154 114 96
-33.716691 -35.792035 255.503321 109 62 41
-33.716691 -35.792035 255.503321 109 62 41
-32.608557 -48.941576 258.049822 118 70 57
-36.821914 15.926003 244.482660 94 60 54
-33.801743 -19.282740 251.152945 93 71 74
-33.349246 -36.188158 255.939388 172 128 107
-33.349246 -36.188158 255.939388 172 128 107
-33.507749 -32.926956 255.571961 172 127 110
-31.934249 -50.365472 258.826041 120 72 54
-35.216177 -15.336707 252.578688 47 29 21
-35.701087 -3.511862 249.793029 150 110 98
-35.701087 -3.511862 249.793029 150 110 98
-33.393642 -20.001979 251.919913 92 71 77
-32.103509 -47.173673 258.382964 118 71 54
-36.155936 -71.958739 270.866179 87 50 37
-36.155936 -71.958739 270.866179 87 50 37
-32.875216 -36.604139 256.279612 119 67 55
-35.674664 -73.384112 271.310091 93 53 37
-35.392010 -4.096232 250.370002 73 41 34
-34.689745 -9.952664 251.462007 165 123 103
-32.027802 -38.443366 257.376122 115 66 44
-31.150073 -45.585221 259.082985 191 143 124
-31.150073 -45.585221 259.082985 191 143 124
-31.150073 -45.585221 259.082985 191 143 124
-34.497115 -2.844474 250.838900 75 44 30
54.351622 -19.275820 142.737949 104 64 58
72.099537 9.830821 111.435401 108 77 76
-31.861869 -22.763319 253.836513 148 113 96
-37.139636 43.170309 240.840554 43 31 41
30.760223 -2.936814 177.898753 161 119 97
-31.518584 -33.091867 257.319808 202 152 132
-34.326720 1.785884 250.537467 149 108 86
-31.610256 -18.940878 253.486919 109 69 62
-35.293126 35.484171 242.787075 120 92 81
-34.055054 2.429715 250.804806 97 52 44
-29.928437 -45.396239 260.127974 185 140 121
-36.613876 38.570857 243.690491 120 92 81
-30.916932 -19.621862 254.295254 182 135 116
-33.575433 1.980013 251.185775 135 97 80
-42.165354 -6.369860 265.284324 77 42 37
49.844119 17.467073 151.872873 165 123 103
-7.948976 -30.261174 228.651643 111 62 43
-35.965213 37.114948 244.543934 32 26 26
-29.168701 -45.323700 260.882115 186 140 122
-30.097198 -23.387618 255.636454 76 49 51
-75.216335 35.547459 296.716928 36 15 20
-75.342828 39.458892 296.232963 33 19 20
-29.353565 -38.648033 259.902930 174 132 111
-29.353565 -38.648033 259.902930 174 132 111
-29.639038 -23.243326 255.949759 65 43 51
-28.455153 -39.476106 259.684038 111 61 50
-29.614121 -32.345405 259.100914 170 125 111
-2.821319 -31.232637 224.328160 118 70 57
-32.528815 15.553249 248.509574 154 113 94
-34.398225 28.384125 247.054124 50 30 26
-32.233119 2.972498 252.078295 189 143 124
-29.328740 -21.391441 255.888391 163 125 105
-35.207793 38.854539 245.296788 148 116 99
-34.592724 29.299301 247.633767 155 114 96
-34.592724 29.299301 247.633767 155 114 96
-35.302484 41.800767 244.912052 153 118 92
-34.001157 27.728367 247.674346 48 34 30
73.088968 9.683435 112.131131 110 71 62
-31.805459 2.749872 252.915239 106 62 50
-31.857547 16.047071 248.937178 111 67 57
51.007271 21.836509 153.388202 22 17 18
53.990853 21.075845 134.151781 179 131 114
-32.991913 26.015931 248.956347 174 129 111
-32.991913 26.015931 248.956347 174 129 111
-30.916402 0.767549 254.143596 55 30 22
-29.768366 -10.104324 256.362581 76 41 32
-31.052271 18.591137 249.603963 84 52 45
-30.409315 0.346271 254.470706 165 128 107
-30.499914 3.252582 254.085040 172 134 117
-29.576668 -7.421301 256.713271 32 20 14
-30.144694 0.987010 255.010271 62 34 34
-30.144694 0.987010 255.010271 62 34 34
-29.756680 3.054317 254.011083 90 52 52
-27.801728 -16.181543 257.753491 63 49 57
-31.775081 28.070927 249.413991 48 35 30
-29.480764 -1.084790 255.540991 66 41 29
-22.648819 -51.987058 262.510777 138 99 87
-29.565787 2.950298 254.511428 96 65 72
-27.005190 -18.165392 257.797194 90 67 70
-29.208198 -1.947965 256.068540 65 39 26
-25.543991 -30.515292 260.528755 67 45 52
-29.648641 18.498227 250.813055 107 62 52
-26.098460 -21.663459 259.007072 105 67 58
-25.475600 -28.227359 260.327435 127 84 71
-23.336300 -50.872308 264.631248 47 43 54
-26.441601 -17.351133 258.244538 92 72 81
-36.880246 36.902967 255.914974 33 19 20
-36.880246 36.902967 255.914974 33 19 20
58.033276 25.143576 129.773295 75 47 41
-28.717190 0.552311 256.035447 175 132 115
-22.948326 -51.819551 265.522146 139 103 87
-28.565019 17.094745 251.767182 91 60 54
-30.160320 28.342339 251.206398 47 35 30
-30.212358 31.899241 250.638533 22 21 22
26.314530 16.893028 186.162138 65 39 26
-24.956624 -18.670633 259.920001 129 83 69
-30.335960 35.007781 250.216055 21 21 21
-26.073471 5.643620 253.844833 59 46 58
-26.073471 5.643620 253.844833 59 46 58
-28.506631 22.905530 252.035928 51 39 50
-20.895025 -87.486148 277.317762 255 255 255
45.028082 19.836541 163.639164 176 136 117
-26.167378 18.637620 253.596902 91 62 49
-26.198897 18.603802 254.071712 108 79 66
-25.952870 28.959811 252.402020 83 53 50
-25.577626 28.956521 251.988935 83 53 50
-26.293898 32.217109 252.201486 86 56 52
-26.499978 43.451905 250.751185 79 50 43
-25.545338 39.112419 251.970696 76 47 43
-25.691983 45.838168 250.958824 71 44 44
-8.894320 -64.954513 266.507173 154 118 103
-22.547036 22.826169 257.441998 70 45 44
-24.176583 39.949390 253.955626 124 92 75
-22.918895 33.473641 255.323768 122 90 73
-23.816505 42.680138 253.567386 67 44 42
-4.841615 -65.457904 264.997578 139 113 111
-3.981320 -67.104113 265.932941 61 42 55
-11.067716 -17.413282 259.952879 152 118 104
-10.308962 -17.350559 259.026313 152 118 104
14.414982 -44.657147 238.880205 105 60 44
-3.469059 -46.966639 263.304639 86 42 32
-4.864889 -31.250766 260.712767 51 36 50
-11.042006 14.965466 253.825402 73 56 68
-6.626020 -12.219897 256.800604 50 37 46
12.998474 -34.541455 239.469886 81 62 70
-10.780979 14.616717 254.898143 144 112 98
11.885846 -28.762510 239.682221 101 54 45
-5.376739 -13.035358 258.148813 52 37 48
-3.206039 -30.449027 261.157084 131 92 67
-10.712769 29.670122 251.306963 63 43 50
-3.665528 -23.279019 259.945822 132 113 107
10.302016 7.276274 231.600761 76 60 69
22.936583 7.192812 212.139869 68 35 30
-26.081806 27.021706 278.752851 30 14 12
-24.985386 26.623973 278.591800 73 55 44
0.494121 -18.167861 254.394364 146 111 98
-24.110848 26.607889 278.393030 33 17 11
9.204803 -4.120100 236.019206 68 35 30
-2.702093 -8.189686 257.297444 52 23 20
-6.251624 25.288326 253.080273 112 80 71
-6.198402 26.786089 252.897406 128 94 77
-6.198402 26.786089 252.897406 128 94 77
1.737490 -28.562686 261.018610 147 110 95
-6.303204 28.480059 252.614331 121 90 74
29.120716 7.507204 205.707908 68 35 30
4.058334 -44.255018 263.970947 61 55 67
-4.558745 25.634968 252.934957 73 55 44
-4.618680 27.267471 252.766109 77 58 44
-2.423368 22.177613 251.666808 63 52 62
-7.174139 55.573541 249.914336 57 17 14
-0.293916 22.752331 251.522326 76 51 48
2.519666 11.577504 255.792117 58 52 61
3.632145 23.957796 255.376458 120 89 72
3.893760 26.740834 255.075765 63 40 36
-34.923619 12.203790 70.896649 41 21 12
-34.761810 26.375383 72.461182 10 5 4
-34.359080 26.358372 72.531229 10 5 4
-221.795559 -13.293016 67.896962 89 59 52
-221.795559 -13.293016 67.896962 89 59 52
183.519816 37.827158 82.202405 81 54 64
-222.608590 -22.542255 68.983710 85 71 74
-211.882591 -104.766273 74.139369 84 54 48
-33.650869 28.016832 74.160516 13 8 5
-216.360831 -115.466833 74.899745 255 231 223
-225.304818 -104.628968 75.095671 62 38 30
-224.647689 -112.476516 76.142734 82 50 45
-214.863634 -21.407074 73.324585 71 71 82
-222.915769 -101.165485 76.249880 48 29 23
-214.137268 -12.096450 73.511732 89 59 51
-230.859971 -129.631710 77.889103 45 34 44
-229.336143 -111.205471 77.358258 177 131 116
-218.595719 -60.671729 75.967097 103 73 68
-218.595719 -60.671729 75.967097 103 73 68
-220.143652 -81.536674 76.799947 102 72 62
-222.019029 -132.036996 78.663361 255 233 222
-220.576954 -85.085249 77.495581 69 60 69
-222.324276 -122.344196 79.366624 141 106 94
-220.496488 -131.757057 81.208956 155 106 70
-157.412946 -21.871178 81.207842 140 115 111
-216.858077 -96.418214 81.958568 172 131 114
-215.836430 -24.479891 79.712027 77 39 29
-213.427353 -83.608156 82.480842 83 78 91
78.167260 15.384458 79.801673 134 96 78
78.167260 15.384458 79.801673 134 96 78
-215.984416 -23.595220 80.287701 138 106 92
-215.743589 -25.821620 80.543089 149 112 98
-215.855813 -41.805777 81.221092 140 115 111
-281.439543 -63.176155 83.490878 149 119 115
-35.766092 27.292365 78.404272 85 119 117
-216.225100 -20.084259 80.499417 60 30 24
-215.640903 -26.260844 81.338620 102 61 49
-220.675159 -139.092755 86.396515 213 164 123
-215.549827 -39.053589 82.441664 165 125 106
-214.106870 -79.999632 84.233171 151 129 131
200.518394 40.417841 77.549988 146 114 94
-301.965117 -79.065138 84.760970 149 119 115
75.387460 13.083769 79.557782 134 96 78
-140.577257 -2.633283 82.579958 125 95 97
-214.767337 -67.860168 84.108090 103 83 87
75.199205 12.859440 79.546392 134 96 78
-213.963866 -25.193909 82.453102 129 99 96
-159.696698 -25.009891 84.564626 128 102 101
-145.106959 -19.048676 84.035140 155 122 114
201.209188 42.334402 77.122307 146 114 94
-216.517282 -42.036173 84.326077 150 120 117
-215.558004 -24.630100 83.606595 140 110 104
74.526173 11.335084 79.570198 134 96 78
-215.611100 -42.895290 84.491384 150 120 117
74.548447 11.165987 79.591328 134 96 78
-216.017246 -137.685072 88.814795 221 171 127
-214.383292 -84.668785 86.576545 105 81 91
72.963989 19.284652 87.606114 125 95 97
-215.902877 -25.915095 84.400845 81 47 32
79.818565 15.874079 80.432189 134 96 78
-214.310265 -44.722161 85.414708 128 102 101
-216.256380 -22.155932 84.552556 148 115 97
-214.682269 -79.676938 87.278688 99 56 40
78.442591 16.861433 79.630774 100 70 64
-168.570924 -38.415411 85.715085 143 114 111
-174.656057 -58.121777 88.108027 168 131 118
-214.761090 -26.473525 85.305458 81 63 67
-214.761090 -26.473525 85.305458 81 63 67
-215.368128 -42.251486 86.053592 145 113 103
-215.368128 -42.251486 86.053592 145 113 103
-175.539696 -60.181820 88.354278 176 138 126
-36.244255 17.670600 81.103891 75 64 33
-216.029787 -23.334590 85.438782 93 55 42
-215.740728 -64.250410 87.306899 154 117 111
-215.948868 -24.820898 85.649621 96 56 44
-214.059854 -56.030256 87.125677 117 88 92
111.419630 23.941983 88.391662 125 95 97
-215.856457 -63.958693 87.636560 136 109 107
-173.926663 -59.695309 88.995165 139 112 114
-215.338993 -44.945750 87.036377 106 66 51
-214.751840 -79.177934 88.654345 91 49 36
77.193099 13.658385 80.218655 134 96 78
77.193099 13.658385 80.218655 134 96 78
-133.584344 -32.946303 87.005603 150 120 117
-215.083313 -80.097032 89.487118 176 138 126
-215.292430 -63.486242 88.757628 150 118 109
-209.288621 -114.486122 91.062140 177 133 116
-215.216732 -81.118625 89.692235 163 126 122
-214.557362 -46.466765 88.202184 92 75 84
-214.467788 -79.886299 90.220475 139 112 114
-214.467788 -79.886299 90.220475 139 112 114
204.069543 42.799664 76.168579 146 114 94
76.374793 11.971232 80.244064 134 96 78
-191.052568 -106.194699 91.478240 177 133 116
112.069237 23.915756 88.579798 102 79 73
76.392323 11.805263 80.264807 134 96 78
76.392323 11.805263 80.264807 134 96 78
-211.862493 -129.640520 93.568194 166 122 76
-214.735818 -76.278907 91.394407 103 60 42
-175.602973 -59.866428 91.719061 94 50 42
-116.528487 -26.489386 87.888020 143 114 111
-174.851143 -58.717853 92.211324 162 126 118
-174.255955 -54.111987 90.886700 43 13 9
-214.653921 -81.054461 92.899370 91 68 73
-214.853454 -77.706152 93.027496 97 56 39
-214.220810 -42.030686 91.465998 131 109 111
-210.389352 -100.847518 94.830346 191 147 130
-214.642000 -70.436442 93.699998 139 107 104
-228.184986 -153.010285 98.057127 254 235 224
-227.275968 -152.537370 98.061699 254 235 224
-210.879636 -69.293118 93.766886 139 107 104
-214.328790 -59.752989 93.917572 135 111 112
-214.156532 -77.208030 95.976639 144 123 124
-216.948509 -22.690366 96.115881 90 62 57
-216.948509 -22.690366 96.115881 90 62 57
-212.190461 -128.225207 103.448319 163 118 74
-216.421247 -58.057123 100.467920 91 65 59
-218.754411 -77.114886 103.695202 52 42 44
-212.566113 -8.828734 100.549889 110 78 71
-212.566113 -8.828734 100.549889 110 78 71
-217.353678 -81.992203 105.752254 127 94 84
-217.353678 -81.992203 105.752254 127 94 84
-209.743643 -6.529258 102.092707 156 119 104
791.117620 84.910005 32.308307 53 37 45
-212.029099 11.313812 101.845229 76 47 37
-211.442184 3.569311 102.346051 152 117 104
-211.728358 4.991669 102.727163 71 43 34
-207.854223 24.498647 101.489115 70 44 39
-207.854223 24.498647 101.489115 70 44 39
218.474102 36.739799 77.090716 166 130 112
-217.876792 -127.523470 110.706127 155 111 70
-217.876792 -127.523470 110.706127 155 111 70
-218.559241 -129.224515 110.999095 150 104 62
223.945189 37.719044 76.257014 166 130 112
-219.374037 -116.308331 110.527432 176 130 117
-211.573648 -1.920237 103.687096 48 31 24
-209.382677 9.139241 102.962422 120 91 79
-220.518279 -96.709013 109.817576 71 43 31
793.996811 83.506739 29.053193 61 45 39
-209.809041 -81.309777 109.593785 134 99 87
820.552635 142.293024 21.211779 165 131 117
-210.779881 -43.184033 107.831764 55 39 50
778.857088 143.565392 22.722112 79 50 39
777.621698 146.324193 22.473343 78 47 39
764.231253 75.248528 27.240261 176 135 116
296.252561 54.385293 64.621621 166 130 112
196.401787 28.039718 73.348117 70 23 20
761.716080 62.503916 27.066505 90 56 42
-206.509089 14.380610 105.874670 136 99 80
-206.509089 14.380610 105.874670 136 99 80
772.485876 123.624551 22.266324 80 51 42
757.344055 72.665089 26.057139 72 44 37
750.640249 50.620711 27.741191 129 98 82
-204.791379 13.764066 106.578970 79 50 40
-226.527953 -114.508176 115.956688 255 232 224
-226.527953 -114.508176 115.956688 255 232 224
765.468216 120.685220 20.968424 194 151 133
288.122416 53.971255 64.652961 197 151 132
288.122416 53.971255 64.652961 197 151 132
-206.411195 -5.916012 108.290875 157 118 102
373.524022 83.665144 62.501305 79 50 39
749.292707 64.525294 24.771039 81 55 48
375.543714 85.246569 62.148899 78 47 39
-208.736134 -73.865306 113.016796 82 48 37
-205.567074 -50.185370 111.634791 163 126 110
-208.158255 -79.240298 114.428365 120 88 77
-202.827883 -26.412359 111.298907 120 93 80
-202.298975 -29.462266 111.639750 87 59 48
739.677238 118.352818 18.697889 77 47 37
-207.120562 -77.035391 115.101838 54 28 22
-201.613283 3.562159 110.072291 119 80 71
275.002718 60.782623 65.342319 197 151 132
275.002718 60.782623 65.342319 197 151 132
-231.010675 -116.105914 120.224023 255 231 223
-200.808573 -19.874987 111.616492 74 55 68
-203.273225 -41.101548 113.169777 76 54 49
730.557251 138.180923 16.807584 79 48 45
-202.631378 -60.959673 116.308582 91 55 44
-202.424693 -82.059813 117.635500 144 108 93
-200.502276 -56.742257 116.630399 86 62 70
-201.085138 -78.752857 118.518376 83 61 69
-201.085138 -78.752857 118.518376 83 61 69
-199.500883 -80.073905 120.851076 148 112 97
-218.552423 -104.178011 124.466145 54 34 30
-196.494627 -72.493541 120.223582 150 114 101
-212.768435 -99.697864 124.592996 57 29 22
-187.105548 28.597522 114.032209 99 88 101
-195.778060 -76.004958 122.421467 102 67 55
-213.766503 -108.927751 126.827276 52 32 27
-186.856484 16.191290 116.273606 131 101 88
660.615826 234.390163 3.520580 150 110 89
-188.703167 11.195813 117.026162 128 95 84
-187.860870 27.438134 116.106737 27 16 11
-185.117114 -7.172482 118.488526 158 118 102
-187.700808 17.257620 117.303956 43 25 17
-187.700808 17.257620 117.303956 43 25 17
-187.406909 12.152145 117.995965 47 29 23
-187.406909 12.152145 117.995965 47 29 23
-187.578094 29.103637 116.963124 103 95 107
-187.717927 -12.906960 119.978631 142 112 100
-145.657229 12.647356 116.000235 136 102 90
-189.209378 6.844173 121.130168 137 101 88
-184.800088 12.702492 121.470535 108 73 64
-184.239447 -3.389388 122.749925 144 111 96
-185.063434 5.777239 122.451234 113 79 71
-177.178419 -32.769096 125.007117 151 118 103
-184.507203 -1.123349 123.260450 112 73 63
51.920295 -0.088284 91.650873 130 96 84
52.329969 0.067101 91.697544 130 96 84
-216.046381 -106.447542 140.284050 169 132 102
-178.079128 -12.292324 127.882123 74 77 89
-178.079128 -12.292324 127.882123 74 77 89
-177.839708 13.622884 126.624084 107 70 63
-174.446344 14.020880 128.074336 110 74 67
-174.881160 0.230708 129.637158 117 77 69
-172.352123 -3.141503 130.347240 131 97 82
-170.982575 -1.272664 131.721497 172 129 112
-170.746768 -73.119575 137.426269 146 111 98
-173.211360 1.873782 132.465076 53 37 45
1228.598881 48.944256 -111.746168 65 44 38
-172.319508 2.754886 133.728814 61 45 39
-172.917032 -52.450073 138.319778 106 81 89
220.043588 37.406895 72.032684 166 130 112
-171.127379 9.181123 133.537972 169 128 109
1196.291542 100.611269 -116.612434 136 103 86
1196.291542 100.611269 -116.612434 136 103 86
-172.275257 -18.109296 136.274099 82 52 39
1036.378288 178.977513 -94.316500 72 49 47
-170.684612 18.146421 133.191264 78 52 40
-172.164023 -29.052183 137.635565 78 47 39
-170.252430 6.767761 134.696114 72 46 39
-171.825504 -16.927737 136.991107 185 143 128
-171.825504 -16.927737 136.991107 185 143 128
-170.093632 -45.338935 139.556777 113 75 63
-170.093632 -45.338935 139.556777 113 75 63
-168.509531 3.735483 135.250092 72 44 36
-171.877480 -60.357279 141.193497 171 135 124
-171.877480 -60.357279 141.193497 171 135 124
-170.202971 -35.969722 138.919616 45 29 27
-171.759844 -63.409829 141.579902 168 134 121
-171.131086 -74.068415 142.444193 65 45 55
-168.636191 21.820909 134.723210 195 138 116
-171.213472 -64.140570 142.371750 102 60 47
-168.706679 18.576699 135.082972 80 51 40
-168.633974 20.488857 134.913480 196 136 114
-170.827615 -67.958897 142.830408 109 66 51
-172.509420 -73.175603 143.639374 94 55 43
226.116562 27.663523 60.721207 70 23 20
-168.851459 10.878873 136.135924 88 56 42
-169.466662 -16.822244 138.755631 194 151 133
-168.631244 7.061847 136.662924 72 44 37
-169.257104 -66.531199 143.366516 186 142 123
-167.359197 -39.878294 140.848029 176 134 117
-166.864371 18.235821 135.975623 129 98 82
-164.858258 23.446856 135.200334 179 139 126
1080.425930 290.986419 -124.536896 73 43 37
-165.923107 21.629003 135.871232 67 42 36
-166.025031 15.885165 136.760271 61 40 33
-168.624771 -70.922375 144.903576 126 81 64
-164.052999 -4.078613 138.836026 163 124 109
-167.333746 -16.242379 140.575826 176 133 118
-166.833961 -29.616562 142.152750 178 136 116
-166.833961 -29.616562 142.152750 178 136 116
-164.713538 -39.345241 143.187952 120 85 78
-163.454962 -36.398169 143.375814 72 52 61
-161.130846 -14.104125 141.143191 76 55 67
-165.627599 -66.081959 147.124779 186 140 121
-165.278721 -69.437206 147.372890 164 123 103
1021.325397 275.580096 -124.206018 55 29 22
1000.069618 304.067183 -123.922658 129 82 66
-160.180950 9.796747 141.187048 154 120 104
-206.414461 14.337806 154.288960 145 111 97
-158.140218 -73.076051 150.109065 150 113 98
-252.868509 7.891776 163.926482 145 111 97
-174.532700 -94.179386 155.577219 109 65 48
-174.348640 -95.829624 155.781019 102 60 44
-267.728519 2.363326 167.563510 145 111 97
-173.814428 -94.947076 156.432509 163 123 103
-157.536423 9.562419 143.619764 106 72 65
-157.211745 2.670497 144.477034 111 73 65
-156.474960 -8.700103 145.817053 43 41 57
-167.899847 14.242069 148.939049 145 111 97
-153.875101 10.674772 145.136642 155 122 103
-198.068655 4.961925 156.196630 145 111 97
-154.053366 13.437076 145.631576 102 68 60
-154.916811 -70.339787 153.773153 56 47 61
-153.995574 -13.607612 148.570907 116 84 74
-151.560068 24.020830 145.659959 102 70 65
-159.413385 -5.022245 150.390995 165 125 109
-151.056266 17.324258 146.549237 111 72 64
1304.178143 442.055082 -241.075611 71 65 77
-150.640714 7.732914 148.183465 156 120 102
-175.010502 -97.949761 166.194808 31 20 14
-148.693311 27.881491 147.889841 95 62 56
-148.092139 14.321625 149.657965 108 71 62
-91.904318 17.910451 136.517739 145 111 97
-147.409785 7.530138 150.397158 110 71 64
-147.553349 19.033480 149.837828 112 77 63
-147.803938 14.340830 150.776827 102 69 61
-117.928255 33.880094 143.099844 104 94 110
-145.960069 -0.168381 154.118860 105 70 60
-143.045592 -69.994211 160.712743 141 106 91
-144.599319 4.442463 154.094958 90 67 78
-144.496882 26.111448 152.280509 76 61 76
-153.633058 34.242272 154.166770 23 19 16
-143.118215 -47.785616 160.619044 86 62 68
-143.118215 -47.785616 160.619044 86 62 68
-113.107944 32.460576 144.762814 131 99 87
-143.784988 11.967118 155.809987 70 44 35
-143.706489 8.648821 156.228733 69 44 36
8.910409 6.627126 114.776981 165 131 117
-142.834616 7.148199 156.635463 68 44 35
279.710579 35.519645 36.664405 72 41 34
-144.502354 -29.862487 161.332726 146 111 94
-142.647624 9.749319 156.869709 136 103 86
-142.647624 9.749319 156.869709 136 103 86
-142.844582 -52.445763 163.505733 175 135 125
-142.309272 -69.308496 165.180266 56 38 51
-115.870380 32.910401 147.229576 23 19 16
-97.077107 38.404790 141.414177 68 59 52
-120.771492 -4.142583 152.526844 172 133 114
-141.307878 -48.685047 162.952590 165 127 114
-144.523931 -32.528406 162.227404 47 33 28
-145.752990 -30.808878 162.412536 59 32 28
1725.211716 516.722775 -421.463203 129 83 69
6.105891 9.123666 115.806830 185 143 128
299.813771 56.441951 28.248349 159 119 99
-142.180634 -50.036132 163.989031 72 43 41
-142.017245 -51.223576 164.090121 76 43 42
-141.138184 -61.060381 164.796877 110 65 57
-141.903651 -63.170350 165.470707 113 71 57
-141.597223 -60.706699 165.139163 123 79 63
299.583507 54.706413 28.170481 51 26 20
-143.088937 -29.620379 162.560678 159 116 97
302.661109 56.169850 26.884755 51 26 20
304.133511 57.395661 26.182157 51 26 20
-144.224977 -31.391335 163.243806 130 95 75
-139.624369 -39.544901 162.790442 86 58 65
296.964407 61.041403 28.158364 138 89 70
-141.019499 -48.756909 164.682138 176 134 118
245.679665 53.955340 46.790737 51 26 20
-138.309169 -40.110481 163.956237 181 138 119
-139.528012 -66.130269 167.573142 129 86 63
-121.424246 28.868479 152.173829 97 81 86
292.641187 63.572365 28.114805 166 127 109
-125.650167 -6.773614 157.238400 152 116 103
-137.053752 -39.119172 164.500737 103 69 68
-138.342977 -67.038196 168.564641 187 143 125
-140.634191 -29.928648 165.320504 91 53 40
54.516339 10.135582 103.364110 164 123 108
175.777948 38.230178 75.297487 129 81 58
320.592976 58.808458 19.119711 51 26 20
