ply
format ascii 1.0
element vertex 1036
property float x
property float y
property float z
property uchar blue
property uchar green
property uchar red
end_header
-306.900549 347.890830 1920.707512 184 140 125
-306.047964 242.871356 1935.555077 189 149 130
-305.938196 275.976133 1930.806923 187 146 126
-46.533659 -132.463157 961.570549 64 46 60
-300.588655 66.122270 1949.763489 166 127 114
-302.316475 -337.702060 2011.627579 117 80 68
-301.779842 337.727261 1919.818115 51 26 14
-31.823036 142.056990 894.944954 87 52 34
-303.546715 -69.101810 1985.598564 197 151 138
-296.428394 374.968863 1896.698570 155 122 114
-37.749970 -7.767159 930.480766 204 160 144
-298.684192 72.863573 1949.326515 107 67 57
-295.336890 -21.830511 1966.445541 172 136 122
-295.336890 -21.830511 1966.445541 172 136 122
-296.259618 -346.223760 2015.692711 87 63 71
-291.174221 -334.706807 2016.956520 92 64 68
-307.213902 28.502691 1973.893166 50 34 27
-311.286068 12.456686 1988.504601 50 34 27
-289.263415 -326.951051 2016.385460 97 81 93
-315.216422 -3.743305 2002.552032 50 34 27
-293.995905 -189.512217 2018.170929 64 38 34
-288.360929 -325.216746 2017.841721 91 65 76
-286.849022 -315.263081 2017.013741 106 77 80
-285.427642 -23.795928 1971.611786 133 92 84
-198.822463 22.038917 1580.372620 75 49 38
-282.618237 -299.757004 2014.711761 165 130 128
-308.904362 55.330193 2036.033630 58 41 38
-285.800433 -213.871527 2019.461250 161 110 91
474.027300 242.648578 -1216.424274 180 141 124
-34.388098 -123.364472 962.868595 179 136 119
-280.089402 -334.701300 2021.030998 188 144 128
-279.746842 130.148232 1959.661102 59 50 64
-281.810355 -213.456249 2021.928215 205 161 145
-274.806452 -395.653701 2036.062813 162 111 102
-587.357092 -639.181232 3041.233635 205 161 145
-223.711538 439.344072 1753.247452 40 35 24
-253.902221 232.849264 1946.298981 160 121 108
-248.641634 300.118828 1935.301018 80 55 49
-248.641634 300.118828 1935.301018 80 55 49
-255.225396 248.628640 1966.376305 76 52 49
-247.932911 264.430761 1940.010643 76 52 49
-248.639321 191.922724 1956.636047 82 54 47
-248.939681 -305.184507 2037.298012 157 113 98
-245.988560 -95.396054 2001.318741 179 136 124
-245.988560 -95.396054 2001.318741 179 136 124
-244.305444 120.692098 1968.890762 73 52 47
-227.665877 370.750833 1912.524033 67 48 47
-219.433999 36.134949 1949.356842 32 32 50
-215.570831 66.346830 1952.726746 31 38 44
-180.054343 415.630245 1762.709236 78 74 62
-213.285446 -229.962063 2045.718384 116 79 70
-212.938070 -222.328997 2043.859482 108 79 69
-206.871200 -229.682040 2049.254036 113 87 91
-206.871200 -229.682040 2049.254036 113 87 91
-203.235245 -284.608889 2057.800102 33 29 31
-185.362637 -362.205601 2079.956627 115 124 132
-169.034016 -36.559749 1934.325409 148 115 102
-184.816563 -244.847870 2061.561203 112 110 116
-185.932791 376.198578 1955.441093 59 42 40
-186.559892 -35.132453 2041.353607 148 116 102
-184.737575 -250.861096 2066.499710 79 54 54
-165.550482 62.711227 1915.237617 32 39 45
-182.347560 -297.854114 2069.841385 119 118 126
-178.231823 -54.440188 2042.723656 89 66 63
-167.170465 -416.598749 2095.969772 82 49 63
-165.008843 -315.673065 2085.456848 129 99 93
-161.072302 -415.399361 2094.331360 137 101 120
-162.112820 -404.480171 2099.475288 58 33 49
-161.450577 -343.850374 2085.904694 113 75 102
-161.580563 -350.683236 2087.965012 142 163 173
-156.976795 -399.737930 2098.029709 130 96 114
-155.734396 -229.267764 2068.733978 89 96 105
-155.984128 -313.559842 2088.666916 158 120 106
-151.788628 -418.575525 2097.152710 77 43 60
-152.937341 -321.985722 2094.951630 90 53 46
-149.066293 -407.578707 2097.705078 96 62 86
-130.799103 -48.635036 1921.803856 139 123 128
-130.073190 -61.543751 1924.288559 129 104 93
-123.305619 -12.415832 1906.982040 160 126 113
-138.793659 -303.128695 2093.837357 78 64 71
-138.410950 -315.330219 2099.235535 173 139 125
-137.400854 -306.869459 2095.900154 180 149 142
-137.194884 -320.739937 2100.471497 183 143 131
-132.224989 -220.968795 2076.742744 77 67 85
-131.758022 -365.645790 2110.215187 124 87 76
-131.029642 -227.223253 2078.436089 71 77 89
-132.057893 -321.481872 2106.099892 125 84 73
-131.385171 -361.998796 2113.924217 106 65 57
-110.190439 354.079413 1829.441071 69 49 47
-125.702822 -404.499149 2111.103439 206 168 150
-125.205398 -288.688469 2082.617950 71 58 65
-96.451932 13.804203 1854.066849 107 98 124
-121.511769 -313.548803 2106.054497 141 158 165
-100.514865 350.836205 1822.059250 112 107 118
-113.478279 -277.221727 2074.801636 132 120 128
-520.433569 1110.016632 4431.231689 86 66 59
-116.198528 -307.424259 2111.413574 112 78 65
-116.198528 -307.424259 2111.413574 112 78 65
-111.964285 -388.860345 2111.297798 119 90 106
-112.869000 -99.140501 2069.359207 137 119 133
-110.791004 -333.258176 2117.302895 59 56 57
-108.433509 -386.147690 2114.805412 107 81 97
-105.154598 -280.046630 2075.690079 64 51 69
-85.910684 56.089455 1867.668724 31 37 47
-84.486961 39.419341 1869.268227 36 43 55
-104.336882 -275.391102 2083.049011 124 113 122
-107.032037 -323.964238 2115.086937 116 117 127
-105.435443 -338.056254 2120.254135 72 73 74
-106.519198 -170.648730 2098.311043 202 162 145
-106.734085 -191.948426 2117.759323 197 153 140
-101.870501 -302.881646 2111.276817 59 56 66
-99.692667 -385.029721 2121.467018 123 93 114
-103.772509 -202.532792 2121.231842 95 58 48
-76.060480 44.668603 1869.190025 80 96 103
-97.082567 -366.807723 2123.653793 116 127 134
-76.754332 74.717444 1872.722244 89 102 110
-96.113503 -206.697106 2124.342346 126 81 73
-69.959605 50.616759 1880.821228 23 28 33
-71.483922 353.146696 1836.265564 115 104 117
-91.184253 -169.987917 2114.081192 152 112 103
-92.700571 -127.756965 2117.159081 51 30 23
-92.700571 -127.756965 2117.159081 51 30 23
-82.387066 -111.765683 2063.361359 51 30 23
-82.387066 -111.765683 2063.361359 51 30 23
-85.472947 -280.609965 2118.004990 75 58 57
-89.851856 -150.658810 2122.528267 228 177 161
-80.751997 -290.910482 2125.082970 63 63 72
-84.426999 -129.418552 2118.677521 67 28 23
-84.426999 -129.418552 2118.677521 67 28 23
-73.662031 -113.214874 2062.207603 67 28 23
-73.662031 -113.214874 2062.207603 67 28 23
-83.685905 -118.911803 2115.704727 70 31 22
219.174433 259.669352 -498.490095 41 31 34
-58.500868 368.286967 1812.802124 102 108 117
-80.351990 -216.824627 2141.647148 115 68 60
-74.452865 -361.517453 2138.896370 180 150 136
-74.452865 -361.517453 2138.896370 180 150 136
-79.951280 -139.239669 2124.217033 50 31 25
-56.214595 364.798379 1822.993851 101 110 112
-74.377507 -176.970422 2125.153923 165 120 105
-72.374743 -219.693756 2140.769196 122 76 61
-72.578377 -192.051613 2139.315414 190 145 131
-68.700552 -116.245890 2116.945457 216 168 151
-68.565238 -184.900057 2137.635040 216 171 155
-68.002874 -166.683948 2132.173729 118 88 82
-61.979055 -348.179054 2138.442421 145 140 144
-69.157571 -71.720874 2127.412224 103 80 73
-62.344974 -323.048806 2156.318283 102 115 123
-59.427571 -294.542813 2138.535881 119 131 138
-57.983005 -349.983335 2144.804001 113 85 102
-62.544298 -197.007596 2138.790131 203 160 143
-58.820009 -270.565605 2130.097961 38 32 47
-56.972873 -340.248251 2145.054626 81 61 62
-61.451656 -221.094346 2151.204109 89 54 44
-61.451656 -221.094346 2151.204109 89 54 44
-59.401506 -201.068258 2133.733177 114 71 56
-59.781575 -187.183869 2135.078621 200 159 143
-62.121028 -66.271996 2128.413963 214 168 151
-54.298317 -346.681094 2149.237823 125 131 135
-58.848697 -72.969842 2118.088150 206 160 142
-56.675291 -80.499953 2117.467499 45 41 60
-52.004194 -327.717352 2148.158646 51 46 59
-55.423671 -226.336455 2151.743698 162 121 110
-54.392153 -84.139544 2110.468483 73 67 88
-53.715461 -111.627603 2117.229843 210 165 148
-46.667150 -362.507296 2156.632996 147 150 157
-52.275932 -70.256621 2123.490143 94 61 56
-51.174599 -219.883323 2154.721451 99 60 48
-47.171798 -269.490814 2136.422539 55 43 43
-52.215493 -159.126830 2147.870827 160 115 103
-43.765011 -312.482166 2149.401283 66 56 57
-47.545600 -226.189137 2155.965424 172 132 119
-47.970918 -205.543542 2152.950859 115 72 55
-41.665608 -388.083816 2159.603119 40 29 36
-46.091309 -75.265342 2114.742279 152 121 107
-45.204484 -102.132547 2130.967331 225 174 157
-44.198766 -124.033070 2139.768982 227 175 156
-43.321210 -210.082531 2159.407806 88 47 37
-39.075887 -314.027810 2154.831505 109 116 121
-39.075887 -314.027810 2154.831505 109 116 121
-36.096430 -391.697550 2159.601212 107 81 93
-37.368086 -330.536985 2154.154396 113 130 135
-37.261286 -268.528843 2141.955757 54 52 56
-43.125761 -112.115049 2145.727539 222 173 155
-40.553460 -213.941765 2156.783867 180 143 126
-39.919496 -219.031596 2162.296104 100 59 48
-39.919496 -219.031596 2162.296104 100 59 48
-34.061718 -334.556174 2157.520676 128 139 146
-34.884167 -256.475163 2147.499847 111 115 119
-29.708841 -444.920015 2198.866653 208 164 144
-34.913287 -123.288572 2145.235825 214 174 156
-23.576394 -82.515663 2031.214523 68 60 84
-25.364605 -107.002699 2086.076927 214 174 156
-26.944003 -390.294170 2162.965584 118 121 125
-28.015262 -330.152941 2161.598015 60 42 40
-31.825900 -210.884714 2161.913872 119 72 60
-33.062130 -133.923054 2148.978615 48 30 22
-26.735380 -370.446658 2168.348503 37 29 32
-30.113074 -223.039627 2156.429291 51 26 27
-26.054087 -313.101959 2156.430626 130 138 142
-29.924607 -118.548107 2147.829437 191 152 133
-19.895977 -405.804729 2166.643715 189 148 131
-27.414575 -18.346825 2120.019531 143 101 89
-24.321663 -115.632236 2150.102425 214 171 152
-23.042057 -216.584945 2180.159950 49 25 25
-14.558703 -339.949465 2165.428352 133 104 73
-14.812835 -101.305509 2147.270966 45 28 22
-11.415089 -194.850993 2172.221947 182 138 125
-9.116666 -232.257462 2163.534737 101 89 105
1.278656 -382.044649 2184.791374 52 30 45
-4.079005 -79.013395 2142.816734 47 45 66
3.290188 -315.310979 2178.440666 111 114 117
12.629388 -387.992048 2190.587616 135 110 124
11.232708 -296.301532 2177.621651 80 69 75
17.026880 138.169384 1961.015320 28 23 18
13.240169 -270.229006 2184.721375 67 55 59
13.240169 -270.229006 2184.721375 67 55 59
18.010843 -301.029563 2179.360390 135 137 143
17.949612 -289.730978 2178.614998 45 46 58
33.837214 -311.258197 2190.039635 58 51 57
38.109416 -349.827313 2198.070717 187 149 135
34.883898 -216.418886 2185.321236 44 47 55
-229.851770 1229.447269 5194.757843 20 16 11
42.168289 -324.400067 2186.701393 217 170 156
43.128723 -340.838647 2194.344521 145 116 110
41.986731 -299.387670 2195.259094 148 120 116
48.314369 -305.917931 2184.223747 221 175 155
47.686195 -337.078834 2209.098434 88 55 50
51.235217 -326.218486 2199.264145 91 77 82
215.231252 479.643869 -1302.437305 160 125 106
59.712535 -539.543295 2253.108597 85 73 89
56.172556 -302.181482 2197.348213 84 55 58
57.313037 -307.048154 2203.175926 93 96 103
57.313037 -307.048154 2203.175926 93 96 103
45.262462 326.545167 2081.881714 63 44 40
70.718044 -565.221071 2263.692474 72 71 85
70.718044 -565.221071 2263.692474 72 71 85
70.636231 -370.962238 2223.931694 82 56 78
56.010377 392.177463 2070.582962 105 78 75
59.161502 298.310685 2102.683640 124 94 81
74.912506 -288.457537 2218.731880 89 57 49
59.741455 369.177651 2089.035797 137 102 92
75.135463 -218.500423 2196.620178 121 122 124
79.624188 -318.075013 2225.075722 140 104 96
63.358182 373.922729 2090.167236 72 48 46
85.624135 -4.285616 1964.720345 180 144 129
85.228360 -260.908556 2211.836815 85 76 86
85.228360 -260.908556 2211.836815 85 76 86
87.137550 444.778490 1687.976456 101 74 71
87.137550 444.778490 1687.976456 101 74 71
89.975214 -266.038799 2217.560768 132 143 141
86.731607 -81.395137 2172.788620 149 124 134
85.675883 -57.171333 2175.094032 59 45 47
94.810963 -26.725107 1974.796677 102 76 68
95.172662 -41.799521 2166.484642 168 137 121
113.892591 -527.914238 2284.130669 111 101 114
113.686824 -505.806828 2281.011009 123 81 69
108.513165 -251.948929 2205.895233 67 59 72
109.457266 -211.564326 2224.792480 109 113 117
109.457266 -211.564326 2224.792480 109 113 117
105.380511 -13.390514 2182.492447 63 52 66
115.231180 -345.017576 2248.663521 129 85 72
110.314465 -169.501197 2217.122269 128 120 121
96.533829 366.473007 2109.644508 62 43 41
115.730262 -264.995551 2237.397575 121 82 69
116.950762 -241.375113 2225.583076 94 66 60
116.604960 -113.504469 2210.231018 123 82 73
104.163587 409.178829 2104.107857 115 85 75
117.822015 -22.559161 2176.163483 164 128 113
119.278431 -14.702652 2192.491531 71 55 65
129.752278 -78.346318 2214.151001 174 134 121
139.911115 4.934956 2005.961418 171 135 121
156.618810 -259.136558 2260.275269 122 76 65
161.532366 -264.369583 2264.036179 202 159 140
156.590974 6.774093 2020.120430 169 132 120
163.740635 -259.876561 2262.285042 152 109 96
166.611111 -265.328455 2266.544724 157 111 98
159.811676 12.572946 2018.190575 136 119 141
183.547091 -734.815979 2890.667343 89 51 43
186.958838 -548.308468 2343.224525 149 95 78
157.740390 377.939630 1968.904686 47 48 60
157.740390 377.939630 1968.904686 47 48 60
172.342825 66.558290 2013.411522 29 40 48
183.190298 -243.676639 2273.569489 180 140 130
193.015039 -515.510750 2339.356613 201 158 139
192.673147 -385.657120 2322.714043 174 131 119
191.725636 -276.952529 2284.444237 86 73 87
192.755210 -303.198361 2289.644814 127 86 74
199.290168 -484.262991 2341.213799 161 108 85
189.390516 -206.567049 2294.676208 34 22 19
191.783345 -199.664450 2304.883766 151 102 83
161.824250 232.876539 -2994.573212 92 49 43
187.845087 73.611760 2019.556808 89 111 114
202.466798 -156.518400 2289.010429 158 106 84
203.426528 -182.445979 2293.717575 180 137 119
203.426528 -182.445979 2293.717575 180 137 119
207.667589 -244.417810 2285.111618 137 98 88
183.502805 386.601567 1923.789406 102 108 115
219.871807 -405.465031 2338.580704 168 118 96
215.780187 -295.889711 2300.526428 203 160 140
201.456237 118.611574 2214.875603 170 128 113
201.445436 127.485442 2210.863876 126 83 76
201.445436 127.485442 2210.863876 126 83 76
221.217656 -381.651783 2334.160042 193 152 133
185.250390 443.491936 1601.567078 214 182 160
229.891062 -511.501265 2359.759712 194 146 133
204.983187 151.329958 2210.083199 133 90 79
208.637619 116.775882 2216.469193 126 84 77
211.079979 137.228048 2214.628410 101 65 55
223.908520 -130.157602 2289.159775 69 45 39
126.272440 -130.766618 -3056.126022 109 74 66
126.272440 -130.766618 -3056.126022 109 74 66
223.322272 -20.439027 2268.626976 81 57 47
231.106400 -193.537951 2322.858429 176 128 111
229.837799 -153.120077 2303.286362 160 104 85
229.837799 -153.120077 2303.286362 160 104 85
114.064741 -115.387583 -3068.423653 191 142 123
114.064741 -115.387583 -3068.423653 191 142 123
236.684966 -244.550204 2301.876640 196 152 133
240.581107 -344.452071 2303.793526 181 137 120
239.171147 -257.535744 2306.468391 136 91 79
250.267959 64.396912 1365.157795 77 44 39
234.183145 -9.248882 2272.594261 193 146 133
230.152559 113.611543 2228.296661 135 93 80
244.002962 -183.814549 2330.729485 74 41 33
244.002962 -183.814549 2330.729485 74 41 33
222.557402 381.768298 2188.597488 68 20 19
245.796967 -172.309220 2319.216728 88 48 39
223.962283 370.245028 2192.267227 54 23 18
209.239602 459.735441 1721.242142 113 105 91
249.227762 -249.988461 2310.821342 107 83 90
252.659321 -328.038907 2330.287933 152 103 93
252.659321 -328.038907 2330.287933 152 103 93
234.047937 139.711237 2227.629662 101 62 53
234.051752 144.932306 2225.536728 168 132 111
232.912827 190.856314 2238.630676 47 30 23
232.956386 246.636772 2224.185944 81 52 36
229.080391 377.000690 2192.323685 211 143 123
245.460200 -19.166806 2280.187225 76 50 51
245.460200 -19.166806 2280.187225 76 50 51
228.384399 411.298800 2169.859314 157 119 105
257.877159 -249.973178 2313.141823 196 152 134
242.477918 124.182653 2233.642197 115 75 63
258.727813 -214.580321 2315.280151 51 40 54
235.457873 383.446670 2196.031761 121 65 68
248.945093 161.586285 2228.252792 130 88 79
267.561531 -250.362563 2320.639420 109 69 57
282.828903 -528.228092 2380.841637 146 99 89
259.194565 43.388849 2260.246277 142 98 86
248.388624 344.698167 2203.915024 82 59 45
256.558204 162.036765 2229.235649 173 130 114
262.520313 185.398793 2238.274574 40 30 41
265.333152 152.378583 2241.424942 183 138 120
452.985620 -144.484234 2734.878349 138 92 83
274.670815 8.387471 2282.948112 84 66 80
266.206241 80.721492 2106.105614 169 130 116
277.704859 13.744685 2277.906799 93 67 70
293.947840 -226.015139 2347.255135 200 152 131
293.947840 -226.015139 2347.255135 200 152 131
282.796049 28.973398 2272.498512 144 100 88
283.782792 143.482852 2251.262283 98 66 54
316.195607 -531.704044 2400.736427 96 74 86
287.218475 137.035787 2253.731346 120 86 70
295.066738 176.408660 2249.152374 110 76 69
207.836914 95.079434 573.327208 190 144 126
293.355536 329.706383 2336.503410 102 70 65
293.355536 329.706383 2336.503410 102 70 65
332.513499 -549.955559 2415.104866 129 121 124
292.427349 314.345407 2220.789909 104 69 64
293.180752 348.450780 2211.724281 102 70 65
309.038377 208.233476 2250.678253 176 137 118
310.443139 183.825564 2255.011559 183 141 121
310.373688 346.360540 2223.003578 163 130 112
311.462235 416.001034 2211.818695 159 124 108
312.884355 390.547800 2214.229012 169 130 111
338.336182 150.934196 2280.465317 100 72 64
337.139392 249.409175 2261.675835 106 73 67
343.415260 157.295203 2278.720474 178 138 118
339.634132 293.441105 2250.124359 113 74 66
438.594246 366.293192 3523.682404 170 129 109
376.640248 -263.040066 2384.811020 129 98 102
392.147303 -544.845343 2446.944046 113 118 123
341.099119 431.364155 2223.707771 109 73 65
345.515800 383.112788 2233.540154 168 129 111
346.086001 471.458244 2219.574165 158 124 107
408.585930 -514.940214 2450.801086 131 128 130
370.484066 217.725158 2286.251068 114 82 75
410.627794 -489.554787 2443.754387 65 58 75
419.564867 -560.597038 2464.554214 122 79 67
373.645949 278.970289 2270.673370 113 76 67
419.720268 -487.341309 2458.023834 113 109 117
372.538996 355.298018 2257.945061 104 75 69
379.297328 259.489846 2277.519608 179 136 118
379.234743 259.204459 2272.904778 179 136 118
378.347468 282.903624 2270.888519 170 134 116
391.442108 59.734696 2327.468681 139 113 113
399.030828 63.484126 2337.956619 152 138 136
379.528189 420.673227 2246.147156 165 129 109
403.968763 82.487154 2334.068871 151 140 141
406.691456 92.430884 2332.311630 176 135 119
407.399035 66.767687 2329.016685 142 136 133
347.000790 127.426493 1732.810783 100 72 64
410.735464 182.838774 2308.241081 169 131 112
411.397743 251.801014 2294.608307 170 129 109
425.444651 62.845272 2343.843269 127 84 72
406.583166 392.611313 2266.827393 95 66 61
413.547707 296.141982 2286.933517 177 135 116
293.117309 -113.802886 1090.196991 75 45 53
416.760921 392.282581 2259.601593 100 66 61
477.418089 -550.744724 2495.274925 60 43 54
414.629316 475.240993 2252.785683 161 124 110
414.375353 484.140682 2249.269295 151 121 106
437.598467 132.781816 2333.187675 107 68 58
460.990191 -226.363277 2423.768997 144 99 86
438.308764 223.748755 2316.207123 109 75 69
472.953749 -302.803135 2451.388168 157 111 92
471.543121 -230.618405 2428.837967 147 102 89
436.967278 332.865071 2298.206711 171 131 115
491.675138 -508.398104 2507.780647 145 91 72
445.101500 220.598745 2318.857384 170 131 114
461.819363 45.571455 2366.815758 139 96 84
499.840879 -465.723991 2507.359314 147 96 74
465.723896 24.703979 2368.914604 64 36 47
465.723896 24.703979 2368.914604 64 36 47
480.894041 -174.889827 2432.299232 41 26 21
473.558617 -78.783572 2399.927711 145 118 123
449.924278 293.313193 2304.897499 102 69 59
480.451870 -159.964383 2422.266769 58 33 29
446.246338 357.107973 2290.656662 162 129 108
481.718206 -143.308091 2429.071999 73 44 34
520.516109 -446.213388 2702.399063 157 105 82
461.712837 163.593352 2348.432922 110 78 67
502.782917 -435.238457 2503.925323 148 96 75
460.400820 171.093225 2332.407188 187 139 121
509.997892 -535.035372 2524.275017 200 151 131
450.452805 361.648870 2289.126205 104 69 63
465.353775 144.129014 2346.014023 114 75 66
488.650608 -174.282420 2443.392563 98 67 43
490.353489 -222.054124 2439.577866 100 75 85
493.791342 -270.951939 2444.773865 186 145 128
494.016075 -233.564448 2442.038536 117 98 107
497.180557 -267.882347 2450.269890 111 74 60
494.840908 -176.912713 2445.622063 47 21 23
452.138376 430.511761 2276.117706 96 64 61
483.400631 4.237721 2393.836784 83 51 37
499.033070 -170.817089 2440.092087 48 30 22
500.735855 -217.059660 2440.872192 187 140 123
523.837423 -545.078564 2528.264618 64 44 58
499.393082 -159.108269 2438.010025 73 43 30
459.798241 431.782389 2283.087158 93 65 58
491.533422 16.635299 2410.076141 174 125 115
491.533422 16.635299 2410.076141 174 125 115
495.987320 -73.194265 2420.987511 51 23 20
507.037449 -254.407644 2452.746964 74 54 70
243.044758 57.274270 495.955467 37 25 16
495.602417 -51.983750 2412.959099 53 25 20
500.816488 -101.419985 2432.855797 57 34 25
572.393799 133.465707 3025.953102 28 22 22
487.097931 135.896885 2367.809677 184 142 127
502.304935 7.129396 2429.425049 81 52 37
519.085407 -261.353159 2463.844109 198 153 130
492.058516 347.659087 2405.210114 24 18 17
484.006119 335.216928 2321.409035 23 18 19
514.341688 301.523376 2563.941193 185 149 130
511.223316 -47.395173 2419.752693 205 157 133
484.395933 352.185464 2320.814323 24 18 17
530.638552 -321.668124 2481.266403 68 40 45
520.497894 -142.122149 2453.275681 84 40 36
547.302580 -513.950443 2551.210594 106 58 46
524.647141 -168.883026 2468.835449 68 42 30
546.988010 -500.629568 2542.050743 102 57 44
526.277447 -252.386236 2457.967377 92 62 70
305.715394 131.734622 988.240147 175 135 112
492.827320 278.544283 2349.415779 181 137 121
239.962935 53.800958 503.963375 127 87 73
491.885376 299.040580 2345.788574 123 93 72
484.618807 382.983708 2313.088036 23 17 18
547.731447 -481.608725 2545.031357 115 67 52
679.753542 488.889885 3750.981522 84 49 43
527.308321 -208.437490 2456.295013 123 87 75
527.308321 -208.437490 2456.295013 123 87 75
485.628891 398.599696 2309.654236 22 17 16
523.954773 -123.121583 2448.407555 79 50 35
503.561354 157.906795 2359.773254 130 88 78
554.634190 -540.507412 2539.138412 49 34 47
528.534412 -98.566675 2466.064072 107 80 65
506.122255 182.757878 2360.691261 135 87 73
538.046455 -258.221722 2469.529724 131 92 79
541.613960 -267.930794 2481.452370 165 129 111
502.413034 305.192375 2340.628433 28 22 22
528.309202 22.142634 2431.153107 210 167 150
538.418198 -140.583146 2458.204460 86 43 39
503.062391 347.086716 2330.333900 144 114 107
514.759016 185.999608 2364.184570 109 74 66
544.543600 -167.300463 2473.710251 56 35 27
544.039059 -153.080118 2464.899635 68 41 32
514.231920 278.624129 2356.184959 188 144 123
522.220135 176.153123 2369.312096 191 142 123
559.636211 -301.045990 2493.079185 135 93 81
515.059757 345.861411 2340.461731 191 145 127
385.322499 51.848334 1124.199104 68 42 30
561.531687 -293.706870 2492.225075 194 149 128
557.282019 -179.906142 2473.483849 45 33 44
498.477316 264.622521 2212.107849 28 22 22
531.210804 170.100927 2374.056435 108 68 58
559.485435 -214.693522 2470.095634 184 139 122
527.222538 294.538593 2364.200211 49 36 29
512.785482 324.499106 2253.836441 67 34 35
526.935482 367.873335 2339.103127 61 42 34
527.845144 388.885546 2341.566277 61 40 33
528.103781 401.548052 2339.021683 67 41 35
536.484146 281.234193 2364.902496 178 136 117
577.644539 -301.912355 2497.002983 144 95 90
542.902136 379.558015 2426.793861 74 47 36
553.802156 69.406980 2408.033371 131 92 81
547.761440 168.929422 2384.565163 117 70 63
546.395254 255.872750 2379.262543 68 46 34
526.702070 482.011604 2304.126549 59 42 33
526.702070 482.011604 2304.126549 59 42 33
546.403837 271.579337 2374.433708 71 46 38
479.287672 300.603628 1978.257561 34 16 20
538.903570 409.137154 2340.814209 187 147 120
547.427225 310.122561 2370.206642 61 44 32
455.755520 265.832424 1771.439171 36 16 23
547.972536 328.053999 2368.662262 71 48 36
547.535419 340.940833 2361.761093 74 51 39
535.241222 329.008651 2259.187698 71 48 36
535.100126 342.272520 2255.985069 74 51 39
548.302412 388.791370 2352.979469 78 53 40
618.295527 -525.870848 2569.268799 72 61 72
529.090214 528.315258 2209.355545 44 32 28
582.486582 60.338700 2419.811058 137 90 81
577.900124 163.649917 2407.843208 153 114 100
634.211540 -501.633215 2576.626205 57 48 62
582.151985 173.235214 2396.144485 95 64 51
585.294771 160.541952 2403.264999 101 65 56
585.094881 189.699233 2403.173256 164 119 101
585.650778 199.046934 2396.907043 176 134 115
585.650778 199.046934 2396.907043 176 134 115
590.364170 272.345757 2378.539848 105 67 62
590.173960 306.260920 2372.262573 106 68 64
649.878216 -354.642916 2553.177834 106 75 78
603.936005 205.246544 2404.089165 102 69 62
592.935085 344.706941 2362.158012 167 126 107
604.086256 273.898935 2390.178299 102 69 59
564.523602 529.317570 2178.954506 62 46 41
353.079247 62.986118 996.929169 76 70 85
611.333084 336.830163 2376.501846 157 123 97
570.452785 528.707552 2193.107986 183 140 119
613.440704 380.688834 2367.091179 163 125 104
693.898678 -545.379972 2612.551498 119 83 71
614.914083 407.500935 2351.180077 90 59 53
613.723373 448.266840 2350.874138 160 125 104
612.651920 489.921713 2343.843460 152 118 98
705.320168 -551.201534 2623.241043 108 77 66
636.508799 310.737491 2399.195099 96 66 58
642.665577 238.945055 2415.173340 162 124 102
638.012171 353.669930 2387.228775 115 76 64
722.237492 -541.448784 2630.456734 109 77 67
645.274878 310.181856 2386.365509 100 65 60
642.595339 373.613477 2383.839798 154 123 99
726.791000 -499.687243 2631.102943 139 105 88
644.160795 440.307379 2369.038582 146 113 92
731.896067 -510.009813 2629.260635 66 57 66
674.560261 207.938504 2437.761497 161 123 103
674.560261 207.938504 2437.761497 161 123 103
675.135994 275.922704 2422.209549 160 127 103
668.293142 386.186862 2404.332733 163 125 107
675.835991 318.763733 2407.005119 166 125 105
711.980772 112.710834 2535.971451 146 111 96
671.795416 456.628895 2380.452538 102 68 56
764.046764 -449.439573 2636.583900 67 60 70
764.046764 -449.439573 2636.583900 67 60 70
783.112240 367.374563 2859.085083 87 61 55
715.155935 214.387393 2453.895760 42 30 22
794.809198 -470.508289 2658.830261 92 63 53
725.965548 209.057617 2456.693268 125 97 78
716.045713 323.731184 2423.315048 130 99 62
726.788998 276.550102 2443.031883 127 99 79
716.572809 394.698763 2414.385605 43 29 21
734.803915 203.869820 2458.902931 120 83 65
715.900373 413.762236 2404.852867 42 27 19
726.530838 343.084431 2426.972198 124 92 73
717.073107 467.965078 2396.891212 49 31 23
716.452742 496.768904 2387.876511 25 16 8
716.452742 496.768904 2387.876511 25 16 8
742.059517 257.971120 2459.872437 166 128 106
728.392124 389.527893 2421.002388 144 110 89
742.605829 285.924959 2445.216560 96 64 56
727.024412 440.173101 2396.774673 126 95 75
727.940226 493.556499 2394.984818 109 84 68
739.800549 389.232326 2419.768715 157 125 102
734.396458 478.627157 2400.666428 102 71 59
741.148376 415.682554 2404.718018 88 59 53
763.751316 361.308122 2458.718872 159 120 101
730.562210 504.249430 2345.725060 127 99 99
855.032825 -415.601397 2696.415138 54 24 26
766.282511 364.122963 2447.233963 108 71 61
771.308613 293.601346 2457.420921 162 123 103
720.602417 529.335642 2288.412666 126 87 71
716.253853 532.285595 2268.582726 91 53 47
714.612675 540.939426 2261.571503 53 36 33
714.612675 540.939426 2261.571503 53 36 33
838.841152 -290.455127 2638.204575 71 41 54
770.319271 381.917977 2441.233253 145 114 91
733.910847 465.414381 2284.948921 84 53 46
795.674229 262.869883 2489.120483 164 126 107
727.221251 537.590981 2247.097969 145 110 91
742.330265 543.085241 2274.083328 162 132 107
409.761000 -12.114048 962.287712 98 67 43
498.762131 -48.972616 1127.385616 54 24 26
536.145592 -72.876328 1279.409885 155 122 103
406.881666 6.428207 815.911484 179 138 117
393.167400 114.689577 870.014191 167 123 109
476.878881 -114.054322 1236.611271 45 33 44
476.878881 -114.054322 1236.611271 45 33 44
394.710565 34.829381 755.811214 74 51 39
413.298941 14.348386 852.895832 179 138 117
420.186901 -9.778969 967.549419 68 42 30
419.825268 66.947550 919.940662 178 136 117
425.506592 -4.362677 964.438725 68 41 32
399.836826 130.565345 861.413002 123 93 72
418.613672 79.624426 894.300461 71 48 36
402.930975 129.010570 865.071678 27 21 21
407.768488 94.158137 882.251167 112 69 57
407.768488 94.158137 882.251167 112 69 57
419.500780 84.564757 899.022293 71 48 36
418.453360 88.397217 892.449760 74 51 39
401.586676 158.686471 849.611664 33 22 19
405.202293 143.698025 856.292629 191 145 127
404.401588 161.487162 847.818565 184 139 121
347.837424 75.970042 651.708794 115 75 63
407.548952 158.373177 848.124218 67 41 35
416.347647 147.942853 857.564831 184 141 116
331.065011 22.462948 510.184574 50 31 25
331.048226 38.587686 499.821949 50 31 25
331.137395 38.320151 496.510172 218 172 155
2633.609200 62.423140 -2383.895683 180 137 120
2027.585793 176.100659 -1775.390244 129 90 81
2088.638496 280.986571 -1895.833397 113 79 66
2076.336670 271.669030 -1884.626007 87 59 53
2056.302071 249.138141 -1859.924507 96 69 60
-727.297449 -98.385978 1732.864571 166 123 106
-730.410004 -171.005893 1742.897606 134 92 77
-715.582132 303.185892 1695.320702 172 131 119
-733.238077 -288.268590 1761.078453 149 104 89
-733.238077 -288.268590 1761.078453 149 104 89
-710.498714 84.090394 1717.596436 54 39 44
-709.227037 -63.330734 1738.607025 120 78 67
-705.445433 -65.629828 1742.969322 180 134 117
62.855142 131.779039 972.802925 64 32 29
-710.005760 -372.098708 1788.167191 97 65 51
-712.777328 -447.806120 1798.128510 128 86 71
-712.777328 -447.806120 1798.128510 128 86 71
-712.899780 -477.619553 1802.004051 91 58 57
-695.698214 -65.036058 1748.702240 137 102 86
1214.799500 156.572914 -716.048145 31 17 15
-688.851643 -66.741139 1744.546700 95 62 53
-707.735920 -451.900768 1800.429726 189 141 125
1898.408699 240.509772 -1768.881035 109 68 52
-703.146887 -131.315219 1775.044823 46 30 20
-681.673670 61.160743 1733.210182 125 82 70
-700.069189 -353.777671 1790.275002 108 81 75
-705.084085 -287.894225 1794.627762 122 72 52
-677.760553 42.229649 1738.683319 105 65 53
-680.684900 168.183577 1735.451889 187 144 124
-679.665136 -59.226018 1754.051781 119 76 68
-679.665136 -59.226018 1754.051781 119 76 68
1179.549694 161.727345 -690.649319 49 33 27
1179.631901 161.996365 -691.118670 49 33 27
-682.517195 118.261194 1750.281525 59 43 37
-671.260977 42.067879 1742.550087 166 128 113
-671.071911 46.323657 1742.398453 103 67 53
-688.115883 -373.101211 1800.143242 169 131 107
-691.798925 -260.878944 1797.911644 142 93 71
-669.775248 174.675345 1740.660667 128 85 80
-687.415600 -257.018232 1799.260521 202 155 139
-682.374954 -366.354966 1801.789665 151 131 133
1689.226341 576.567698 -1609.413338 56 29 27
-681.108475 -381.526065 1804.951668 102 75 70
-681.108475 -381.526065 1804.951668 102 75 70
-661.200142 306.772757 1726.522636 68 26 8
948.666668 187.004280 -407.749176 83 56 43
-666.500092 -88.433510 1766.661263 65 39 40
-666.500092 -88.433510 1766.661263 65 39 40
2262.924385 623.566198 -2434.443665 50 30 25
1632.806778 -66.449744 -1426.012230 81 51 40
-679.184771 -411.555767 1810.724068 100 68 53
-659.180069 42.175773 1749.241638 174 132 118
-157.587647 55.934674 1171.356583 141 98 81
-660.418940 -42.870048 1763.570213 106 73 67
-675.122499 -415.238762 1813.456345 170 132 116
2343.763924 702.630711 -2592.643738 51 31 24
-671.972466 -392.830896 1812.193108 78 66 75
-655.840302 -62.244874 1768.909645 106 79 75
-649.608374 43.926114 1754.782295 173 130 116
2200.673103 589.080000 -2391.791916 219 169 152
2200.673103 589.080000 -2391.791916 219 169 152
2292.952919 678.107548 -2549.399376 217 169 151
2292.952919 678.107548 -2549.399376 217 169 151
-535.361719 164.647532 1591.717529 187 144 124
-648.159409 274.836087 1743.260956 67 38 32
-673.427439 -151.896524 1811.258125 210 160 139
-659.919167 -349.361610 1812.866402 109 75 65
-661.738586 -470.361948 1829.136467 67 44 46
-658.774376 -404.225874 1821.716499 122 83 69
-646.539164 -83.258349 1779.440689 171 127 114
-658.244562 -396.975040 1821.357155 64 40 55
-660.590410 -307.246351 1821.498108 205 157 139
-636.043978 282.689023 1740.146637 66 38 28
-645.646954 104.286194 1771.004295 61 42 35
-305.481863 66.834897 1369.245243 204 159 140
-634.091377 222.827625 1748.114777 76 43 27
-654.516125 -281.898379 1823.010254 127 77 51
-281.006765 48.530921 1343.009663 57 28 24
-632.072592 -61.338282 1783.037186 124 87 74
-627.101421 39.140612 1768.004227 122 77 62
-655.319738 -497.459793 1852.892685 222 171 150
-642.959929 -366.243553 1825.870705 182 136 119
-625.677252 44.395912 1768.304825 120 79 63
-629.695225 -57.566822 1783.436775 173 131 116
-640.583229 -347.685790 1824.351501 116 80 69
-623.480034 40.695852 1769.056702 161 126 114
1295.925999 181.348753 -907.456779 49 33 27
-636.475182 -347.813678 1826.857185 183 140 128
-648.129845 -497.834969 1858.507919 157 105 79
-622.439480 -56.862235 1787.221527 167 126 111
-599.352360 411.460304 1717.267609 118 102 119
-599.352360 411.460304 1717.267609 118 102 119
-617.509747 -59.622353 1788.409996 120 80 69
-637.539625 -509.117603 1856.124115 156 103 78
-277.031398 48.373103 1362.840843 177 139 127
-616.016197 -56.076175 1789.864349 173 134 120
-626.484728 -121.298862 1812.985420 46 27 20
-610.860062 96.016794 1773.364639 61 52 65
-626.428509 -387.276721 1838.023758 143 124 122
-622.696829 -373.376369 1837.630844 71 52 59
386.769938 146.122479 317.338705 30 18 11
-618.683243 -372.712207 1840.289307 163 129 120
1527.732849 515.271235 -1470.077705 42 28 24
-615.814543 -340.874887 1838.653183 168 128 119
-588.876295 311.536193 1746.166801 168 126 109
-588.876295 311.536193 1746.166801 168 126 109
-700.194120 -196.223760 1934.869576 177 139 127
-593.218422 54.904956 1784.185028 186 142 124
-598.007822 132.425702 1785.576057 158 120 106
-608.961773 -347.768760 1843.214989 172 137 126
-610.486555 -439.208269 1855.086899 133 87 79
-610.486555 -439.208269 1855.086899 133 87 79
-584.167480 271.153998 1755.316353 86 60 54
-583.226299 197.389376 1767.157936 96 67 59
-605.959988 -435.634089 1857.233429 151 105 90
-587.073851 69.803447 1785.638618 141 97 85
-582.476425 160.570204 1773.735428 96 65 57
-584.036207 118.792582 1780.510139 185 141 123
-583.677959 128.505385 1779.210663 187 140 121
-583.250761 91.634732 1785.328484 187 141 124
-578.081942 124.295974 1781.705093 97 66 58
-571.867704 272.271466 1762.654686 87 60 55
-593.271542 -350.635672 1851.448631 115 73 58
-592.293406 -356.424952 1854.093361 196 148 131
-590.836668 -440.565443 1866.601944 149 106 92
-586.758089 -348.692918 1855.397415 123 78 64
-586.143923 -343.892312 1855.417442 190 143 128
-566.247654 94.844204 1792.990112 178 134 120
-559.557676 26.678443 1807.019997 104 69 58
-560.856676 26.008037 1808.844376 104 69 58
-560.728407 -3.910073 1814.315033 93 62 50
-546.971416 29.410452 1817.198753 173 130 114
-548.349619 -29.991984 1825.237846 97 65 52
-545.342302 -47.709531 1829.355431 118 84 65
-532.000494 91.898704 1814.316368 95 67 60
-522.891808 165.310037 1807.007027 92 66 61
-520.382309 208.133721 1799.310112 178 135 117
-528.182459 -15.270761 1833.783913 51 48 60
-518.904734 234.668398 1795.734406 142 108 98
-519.398785 -46.496576 1845.398521 84 61 62
-518.271732 -117.379117 1857.943535 88 63 66
-515.945959 -202.363276 1870.204163 82 58 63
-515.945959 -202.363276 1870.204163 82 58 63
-516.434145 -251.218557 1879.640579 84 60 65
-516.434145 -251.218557 1879.640579 84 60 65
-497.082806 16.060795 1846.706390 175 132 117
-492.101860 175.352871 1822.722626 179 134 118
-491.944885 128.999615 1833.163834 180 138 123
-494.050550 -84.624255 1863.180351 128 95 84
-485.315418 205.257463 1821.538353 91 65 56
-486.445856 106.150210 1838.076019 106 74 65
-458.947802 172.757196 1844.307327 94 66 61
-458.662081 67.905325 1857.851028 105 73 64
-454.362488 243.242645 1833.960533 178 137 120
-449.096107 414.273548 1810.506248 95 69 63
-449.020243 318.585443 1824.555016 86 60 54
-455.815411 -103.929007 1889.180946 184 140 126
-445.776796 142.294252 1853.471184 178 137 121
-442.147732 167.178571 1849.690437 148 112 101
-454.416132 -358.120346 1931.704903 177 133 120
-446.244860 -9.456629 1880.344009 156 141 138
-453.805923 -410.037136 1940.268326 185 141 128
-421.899128 285.689616 1845.498466 85 62 58
-436.744690 -518.553305 1964.057350 114 80 76
-421.664381 139.838171 1871.460152 100 71 65
-412.844706 332.616258 1841.711426 91 61 52
-417.716646 135.806882 1875.197220 175 137 121
-411.056852 285.720015 1849.786949 87 61 56
-401.334429 146.982551 1881.301880 175 132 115
-396.970654 324.629903 1855.528069 86 59 52
-398.174977 105.343068 1888.380814 98 70 64
-395.010090 252.225232 1865.681458 92 64 58
-404.391670 -254.280162 1942.589569 135 91 79
-396.419382 178.304493 1878.692055 89 64 60
-394.608521 54.634398 1900.288963 112 76 66
-392.071247 84.418637 1895.245171 184 141 121
-393.899083 -237.799692 1943.368912 131 86 71
-390.289521 -62.425649 1920.442581 179 136 121
-381.009293 416.329288 1848.022842 161 124 110
-386.944199 -30.533707 1917.203522 126 87 75
-384.093404 -33.082572 1918.719673 183 140 129
-384.093404 -33.082572 1918.719673 183 140 129
-387.425351 -319.622254 1959.253311 154 108 91
-382.032108 -35.660517 1920.630264 185 142 127
-382.661438 -72.627962 1927.501488 149 128 131
-384.400725 -448.859644 1979.305840 178 137 124
-373.049974 367.989588 1859.917831 150 116 108
-384.896278 -428.719044 1978.870010 189 144 130
-384.896278 -428.719044 1978.870010 189 144 130
-385.047078 -429.348946 1979.662323 189 144 130
-375.304937 -409.513474 1981.111526 191 146 129
-372.770405 -330.414844 1968.399429 106 71 60
37.564492 60.442305 1025.247288 180 134 117
-676.880455 -246.667409 2706.057739 202 158 141
-370.538068 -295.014977 1970.048714 73 53 65
-364.700842 326.082325 1885.248375 61 45 40
-29.911101 -1.947065 1170.143604 177 139 127
-36.228755 -12.393560 1180.879974 177 139 127
-370.417070 -221.483541 1966.219711 202 157 141
-366.673708 -340.157890 1972.329521 179 137 122
-369.382167 -290.424061 1975.173950 46 35 49
-366.546869 -318.569422 1973.204422 179 134 121
-366.546869 -318.569422 1973.204422 179 134 121
-369.797921 -224.006867 1974.923897 166 112 88
-352.648687 363.024330 1871.350861 148 115 104
620.837116 319.391274 -365.476871 33 21 19
34.424469 33.533978 1042.863846 46 30 20
-358.032250 285.869956 1897.027016 29 20 21
-355.471921 -31.893399 1935.945892 129 87 80
-798.115635 681.003904 2846.983147 13 13 11
-349.727798 81.362975 1917.381096 181 136 119
390.971375 111.281419 289.364743 188 147 123
-345.941305 363.768625 1876.466751 148 115 103
-349.694371 100.651240 1917.009926 115 78 67
-349.694371 100.651240 1917.009926 115 78 67
-349.366331 86.130750 1920.502472 131 90 79
-456.667614 -172.274315 2238.685608 56 29 27
-356.149721 -138.621891 1967.447662 61 32 28
-352.239656 -325.315332 1981.889725 92 66 76
492.451572 130.264843 49.997810 65 40 37
-584.839725 137.927854 2461.068344 77 48 42
-356.394696 -222.103310 1984.036446 162 109 89
-344.831061 96.184075 1920.113564 118 79 66
-348.952889 -406.569862 1994.364166 144 103 88
-406.468391 -179.880035 2079.963112 208 167 149
-406.468391 -179.880035 2079.963112 208 167 149
-406.468391 -179.880035 2079.963112 208 167 149
563.180256 254.650927 -184.929812 212 168 150
-346.148896 -329.756808 1985.614204 159 131 131
-345.046854 330.384302 1902.666855 20 16 10
-343.420696 288.567042 1904.810333 41 30 31
-340.056491 51.533914 1929.221344 173 131 117
-343.738270 -310.095787 1984.246445 147 105 93
-344.538951 -371.093702 1993.165779 102 68 60
-339.083004 69.131154 1927.302933 172 135 120
-340.182495 -25.278217 1942.116547 123 82 73
-346.286702 186.615443 1930.348206 69 49 44
-342.464066 -330.301619 1987.736130 119 74 63
-342.151642 -367.389393 1993.992805 147 113 104
-340.450931 -402.406168 1997.821045 185 143 127
-338.658571 -20.510526 1946.477318 123 83 71
-339.580107 309.300017 1909.124565 37 23 18
-339.256001 -347.678041 1990.541267 147 122 124
-339.402175 -354.271388 1993.296814 75 57 68
-338.478661 -364.262962 1995.312500 107 69 59
-349.465609 -93.643105 1984.865189 50 30 25
-331.708217 60.312521 1933.753395 173 136 122
-331.023669 79.856771 1931.330681 121 86 74
-334.348226 -351.570916 1995.187187 153 123 121
-325.198817 417.390394 1880.567551 68 50 46
-332.873678 -344.105506 1995.571327 131 92 82
-332.306004 322.377062 1911.476707 190 145 127
-332.306004 322.377062 1911.476707 190 145 127
-331.950140 305.034351 1913.805771 190 146 129
-331.950140 305.034351 1913.805771 190 146 129
-329.602599 -346.031141 1997.800636 191 148 135
-325.768518 -7.996302 1948.480606 101 68 62
-327.576184 -352.922440 1998.863220 157 124 118
-326.999855 -309.947968 1993.659210 117 83 71
-327.276540 -368.363142 2002.022552 157 121 110
-325.160980 -364.241529 2001.347733 118 77 67
-326.956630 -77.269185 1970.972443 219 169 152
-321.090794 90.031105 1935.407639 181 137 120
-333.148718 -524.103594 2043.705559 170 113 91
-325.844622 -371.999836 2006.936073 112 75 70
-329.340243 -108.235979 1981.399727 217 169 151
-324.390078 270.436764 1923.372269 53 20 14
-319.158602 49.072963 1942.963600 166 126 113
537.599659 242.348838 -130.593526 210 164 144
-318.214726 60.421211 1940.369034 95 59 53
-319.711423 -352.204943 2002.271271 128 84 74
-318.472743 267.333078 1920.701790 207 142 123
-321.675348 331.748199 1922.043610 39 35 28
-322.480655 -205.125403 1995.359039 162 117 104
527.468967 234.549499 -98.471433 152 107 98
-314.435315 77.861005 1940.675735 172 130 115
-314.435315 77.861005 1940.675735 172 130 115
-317.561889 -363.917398 2006.571007 206 161 144
-314.862108 -19.462414 1957.231712 134 92 79
-314.862108 -19.462414 1957.231712 134 92 79
-322.515106 -279.268956 2011.002541 29 16 16
-312.115288 100.269949 1938.949585 89 63 56
-314.985418 -382.075810 2012.161255 199 155 137
-312.149739 260.595560 1930.735970 40 20 15
-310.711956 -369.919324 2010.488129 122 83 73
486.281252 171.248019 48.870674 205 162 146
471.940947 73.273432 82.791036 71 45 39
-1697.846794 -2272.363472 6538.490295 169 112 89
510.262823 114.297915 -14.593188 54 38 31
106.499493 192.711592 941.851997 193 147 122
-303.556776 78.134108 1948.018646 162 123 109
-303.556776 78.134108 1948.018646 162 123 109
-306.382918 242.265630 1936.752319 189 146 128
-306.382918 242.265630 1936.752319 189 146 128
-305.030823 203.306222 1939.537621 174 133 118
-308.833480 -399.047947 2029.251099 194 147 132
117.263091 109.202361 957.693577 204 159 140
-307.231784 -76.552767 1986.044693 46 23 20
-298.749328 72.536993 1949.753952 100 64 53
-299.528766 -19.193229 1964.738083 131 87 78
-305.418301 -215.506554 2008.005333 169 115 93
548.487234 195.953727 -162.646270 185 140 122
-255.664778 -113.387334 1833.900833 207 164 148
-303.206325 -213.747001 2010.338974 221 174 155
-295.758772 -21.909937 1967.539597 169 133 119
-295.758772 -21.909937 1967.539597 169 133 119
-300.698519 260.254765 1947.299957 84 55 41
-293.343496 61.061007 1957.326126 138 103 93
-293.918753 331.691647 1925.212669 20 17 11
-300.985146 298.172736 1947.286415 35 24 20
-294.293427 191.276574 1949.555397 60 46 43
-291.103983 -334.476733 2016.634178 85 58 64
-298.774648 -13.695611 1995.151520 170 128 116
-288.051748 -324.795628 2016.875076 84 59 74
70.943707 38.799658 1045.930099 46 27 20
-286.378288 -314.648747 2015.557098 93 70 77
-285.574841 244.034362 1949.502754 191 147 130
-281.321692 -395.384383 2031.731987 186 144 128
-283.149958 -274.065495 2030.550766 23 18 14
-338.947988 -174.682486 2138.076782 202 158 141
968.691254 716.558647 -2128.307533 38 31 45
-263.249230 -20.256829 1983.494186 172 132 121
-259.534478 -16.001794 1987.120819 105 74 71
-259.534478 -16.001794 1987.120819 105 74 71
-259.534478 -16.001794 1987.120819 105 74 71
-260.525155 -399.852228 2044.932938 152 104 97
-259.800696 -410.063457 2045.710564 149 105 92
-258.490896 -20.639671 1986.259842 111 76 68
-258.032370 -390.273881 2042.794228 139 95 87
-257.890892 -396.181321 2046.461868 198 150 134
-249.106622 336.036921 1931.108856 73 52 50
-252.147770 -47.000530 1995.912170 164 127 115
-249.481106 227.727938 1950.623894 72 50 51
-301.108646 222.429109 2061.513710 158 118 109
-250.028372 124.093127 1968.049240 155 116 104
-248.684549 191.582251 1956.957817 74 50 46
-246.795964 378.323841 1926.103783 144 110 98
-246.885180 -311.069131 2036.226463 153 106 92
-229.292345 43.241864 1960.499382 26 26 40
-239.379144 -273.813438 2035.192490 200 155 137
-227.292848 264.432001 1939.752960 55 40 38
-253.439021 251.695037 2005.103683 55 40 38
-225.357437 79.499596 1967.581558 44 32 31
-205.182838 19.294246 1936.122322 28 27 49
-214.818549 80.243331 1958.257675 63 81 91
-203.634739 -63.138568 1963.683319 40 38 61
-205.152917 65.639180 1951.992035 14 16 20
-203.259778 109.691525 1952.768898 87 78 105
-208.764505 -244.226313 2047.601700 135 143 143
-190.265405 -81.135821 1978.461075 142 110 110
-208.202386 -295.229816 2057.287407 141 145 144
-191.338825 -78.665763 1989.720726 46 39 53
-203.512931 -266.953969 2050.638390 107 114 117
-198.552978 -265.673733 2051.160431 97 108 113
-199.545836 -214.081001 2047.660637 40 33 34
-188.970459 302.686977 1947.914314 45 33 33
-188.970459 302.686977 1947.914314 45 33 33
-188.970459 302.686977 1947.914314 45 33 33
-184.269857 -51.814467 2004.867554 153 123 111
-159.472561 -60.281074 1934.943581 45 36 43
-158.303213 -50.812852 1938.590622 62 51 48
-186.195993 -361.274242 2079.791832 114 125 130
-130.840886 407.202625 1785.698128 99 85 76
-185.744786 -238.236690 2063.254356 68 48 49
-175.430822 -287.389779 2048.586464 57 51 64
-147.056222 -44.011766 1928.367233 153 123 111
-180.073059 -228.084087 2062.536430 120 128 135
-177.659392 -217.757297 2057.849503 135 118 129
-140.711677 -56.138319 1935.900116 59 50 47
-165.463018 -323.874497 2081.297493 116 89 96
-161.966026 -410.646105 2093.801308 51 28 43
-161.966026 -410.646105 2093.801308 51 28 43
-158.425319 -408.564138 2095.631599 46 30 46
-156.061900 -236.490369 2067.581558 63 70 80
-152.702522 -344.231439 2080.435562 67 66 77
-152.584720 -227.131057 2068.282509 153 167 170
-154.360461 -302.382994 2087.905693 55 52 58
-152.441955 -375.356317 2096.631241 124 91 104
-154.051006 -308.281302 2092.195129 158 123 110
-149.528074 -340.944219 2084.668159 200 156 137
-107.293081 46.709263 1877.496719 87 106 113
-152.543771 -321.458673 2093.430519 79 44 36
-105.406260 -75.568074 1904.541588 41 42 64
-147.773039 -239.689136 2073.060036 65 72 80
-147.681284 -366.553402 2095.873260 86 68 76
-148.993886 -306.075501 2091.201019 76 64 69
-145.675361 -397.210026 2097.860527 192 151 135
-144.947374 -294.398785 2078.488922 69 59 63
-148.293209 -318.769050 2096.109200 154 115 103
-100.351405 75.362819 1873.538399 80 96 105
-141.346061 -354.440093 2093.296051 231 181 167
-143.804073 -307.456350 2093.784714 120 131 136
-141.582966 -333.434391 2090.767288 41 43 48
-135.753107 -377.884054 2098.148727 159 114 106
-90.948582 49.491072 1870.906258 21 28 32
-135.652852 -349.202847 2097.041512 144 103 93
-137.336361 -306.718493 2095.623398 180 148 137
-133.831358 -225.923061 2072.925186 126 140 148
-130.162227 -286.774850 2073.096275 64 59 71
