ply
format ascii 1.0
element vertex 1058
property float x
property float y
property float z
property uchar blue
property uchar green
property uchar red
end_header
-29.348284 28.366497 1116.579914 120 103 153
-15.948971 66.287714 1123.110485 46 37 81
-20.210387 18.081915 1122.954369 118 100 154
-20.210387 18.081915 1122.954369 118 100 154
-56.019711 134.371269 1069.151783 102 88 139
6.807569 -235.193205 1178.636456 132 112 131
6.807569 -235.193205 1178.636456 132 112 131
-159.672928 222.979784 939.088631 62 43 90
-12.843435 61.259848 1120.031548 47 36 77
-27.113885 -140.776646 1122.652817 89 75 122
-11.687510 34.354275 1116.918468 43 34 77
-263.751411 175.687253 819.981384 39 32 52
-36.450490 -179.671490 1108.274174 35 29 67
-7.695118 -8.733920 1119.525528 40 31 56
21.559489 -242.356563 1164.333439 91 75 107
0.198354 40.746319 1108.575821 41 34 67
-40.481338 144.773221 1052.860832 56 44 86
24.748631 -321.342516 1169.634724 89 65 83
24.730122 -243.632960 1161.413383 88 66 97
-36.919016 124.818170 1051.004028 58 41 79
29.910141 -307.770634 1162.702560 86 72 105
29.910141 -307.770634 1162.702560 86 72 105
8.551358 20.761785 1102.725506 50 38 70
8.551358 20.761785 1102.725506 50 38 70
-32.445103 147.658038 1043.811893 48 38 81
35.513052 -306.933427 1157.293415 91 74 103
41.354030 -265.611053 1147.150421 143 118 136
3.450890 -55.067778 1085.027218 39 33 76
43.505153 -281.945372 1145.961666 79 58 80
-22.863409 146.769822 1032.911301 44 40 55
44.044983 -287.216949 1144.957256 135 114 135
44.616920 -292.585540 1144.678211 88 69 99
46.033299 -249.174643 1140.778255 86 74 104
46.214578 -168.229401 1130.343342 96 81 116
48.468885 -143.552196 1124.617481 83 66 91
52.302510 -281.724215 1136.034584 99 77 105
54.054153 -270.506430 1136.321735 92 77 108
53.287995 -142.418313 1122.172451 92 71 97
53.865999 -226.788330 1130.951977 72 55 77
53.484792 -307.396960 1137.429237 84 64 84
58.771670 -271.028614 1129.718781 94 76 105
11.751120 101.624191 1040.525436 60 52 103
62.399656 -211.858630 1118.553257 85 70 97
64.110076 -271.301889 1125.914001 84 69 100
62.842548 -282.001400 1125.751114 89 66 97
38.189852 -54.555029 1078.525066 129 112 145
8.155348 112.431908 1030.857086 63 59 95
31.382522 82.542616 1054.271698 43 39 88
67.106187 -268.738484 1122.598457 91 68 81
-4.438131 224.472809 1002.462673 53 37 89
67.771173 -101.585793 1102.280426 104 75 100
-0.342628 128.330970 1010.980606 109 91 140
28.485021 66.514170 1044.077682 126 107 153
1.263572 208.349657 999.493599 48 36 82
30.603075 73.793936 1039.981651 44 31 65
34.440956 -0.525552 1050.119400 23 20 36
75.338197 -189.880288 1107.405281 103 79 102
4.110500 127.252007 1007.685471 52 42 67
4.110500 127.252007 1007.685471 52 42 67
77.197599 -308.881068 1116.047478 90 69 84
6.348366 123.845887 1004.918766 42 31 60
76.977122 -139.434397 1096.807289 92 72 90
76.977122 -139.434397 1096.807289 92 72 90
77.550477 -212.294173 1103.987980 134 116 132
78.298074 -112.220895 1094.044971 73 56 70
26.841149 -5.654584 1031.818008 68 57 108
82.110578 -109.289432 1090.657330 79 64 87
81.156278 -250.710964 1103.428841 85 73 100
83.052361 -242.324185 1102.081299 97 75 95
9.433488 222.946167 987.787724 58 43 77
42.668748 61.693066 1030.313396 63 51 82
85.650063 -252.643538 1099.551105 83 68 93
14.153014 204.580593 985.809326 43 32 65
16.724272 139.714217 994.430542 66 53 90
16.724272 139.714217 994.430542 66 53 90
17.702140 125.087404 994.441700 52 41 75
93.338430 -150.626874 1082.615566 144 122 136
21.524011 113.534069 990.993404 108 88 139
95.116395 -106.933212 1074.835873 134 112 136
96.452534 -231.349945 1086.204433 91 72 96
96.452534 -231.349945 1086.204433 91 72 96
25.571999 119.559586 986.257458 51 45 59
23.954922 180.405152 976.823044 23 26 42
102.209651 -255.833626 1082.425213 82 68 92
103.588319 -323.066878 1089.036560 83 70 94
104.080808 -271.298480 1082.131481 135 112 125
105.325842 -112.620759 1065.957642 76 61 88
106.479108 60.714442 1045.706749 54 46 72
120.802081 -279.404974 1068.170738 128 108 130
120.530438 -202.301526 1059.484863 85 70 96
120.530438 -202.301526 1059.484863 85 70 96
117.810404 98.806494 1027.330303 137 123 146
121.869075 -195.430815 1057.724762 75 64 73
121.526396 -309.308124 1067.958164 88 67 90
121.526396 -309.308124 1067.958164 88 67 90
120.514047 -0.661370 1035.761929 69 56 83
122.957766 86.782944 1024.829388 79 59 82
126.488400 -129.082811 1046.153641 86 67 89
124.369502 98.876631 1022.308254 146 131 155
129.149234 29.048446 1026.040173 78 65 86
131.017458 -222.906709 1050.850582 77 64 89
130.747473 194.653416 1007.328224 88 65 86
130.747473 194.653416 1007.328224 88 65 86
133.088112 -200.838804 1045.158863 134 115 141
131.715119 157.873201 1009.982777 69 50 70
133.905125 -238.277459 1048.912621 122 106 114
132.429302 65.211451 1018.046665 141 118 129
133.299339 -23.778856 1025.010872 57 50 74
137.003982 -225.439906 1044.662666 77 68 88
135.557461 102.859521 1010.824299 79 65 94
137.917519 -262.008262 1046.870899 64 52 68
134.445262 153.328133 1004.476547 125 111 137
135.600543 230.707836 998.017025 109 90 101
136.254632 98.012900 1010.374451 97 75 99
137.864029 233.147645 995.937729 59 47 66
141.133809 -159.762907 1035.188007 82 66 82
137.070405 160.395157 1001.836109 126 100 115
140.896583 -323.319554 1050.231647 92 71 89
140.909553 33.700657 1015.995789 87 73 101
141.481149 -195.248914 1037.288761 91 70 88
140.111053 112.947643 1006.659603 87 64 81
140.111053 112.947643 1006.659603 87 64 81
141.561604 -31.886336 1019.873428 135 117 135
144.086766 -155.129445 1032.991791 102 80 94
142.159200 -10.019952 1016.775131 79 57 80
142.935836 235.347581 991.867924 49 40 55
143.988109 96.492666 1005.433464 134 112 117
142.677474 -29.575485 1015.604305 77 63 86
147.676349 -237.045527 1037.125397 70 57 72
142.835212 214.100814 989.603806 120 98 123
144.717288 -44.023532 1014.128971 119 100 115
147.145689 123.731494 999.775124 58 49 71
148.820829 92.725819 1003.026867 51 43 57
148.686707 225.886273 989.180183 43 33 53
148.243845 240.428162 985.041714 121 107 131
150.009930 73.871785 998.786449 84 73 99
150.310600 175.823689 989.478111 150 127 131
150.953543 32.382905 1002.440739 132 110 127
150.544834 166.689742 989.496040 145 122 126
151.645839 180.402219 986.836338 88 67 84
146.834850 239.022899 976.617050 121 105 126
148.587632 239.268756 977.435493 121 105 126
152.683246 51.594543 997.752190 125 113 132
152.316976 167.489350 986.265469 83 61 79
155.590498 -119.024253 1014.419842 56 50 72
153.900170 169.647861 986.294365 83 64 79
157.292402 -8.392143 1001.210785 94 78 96
154.974818 164.260960 982.399464 160 132 145
156.657243 225.373602 975.927448 51 38 59
158.670962 59.291053 992.408562 89 69 90
156.999290 169.814241 979.631805 79 65 91
164.447057 -159.096110 1008.222675 68 59 81
164.447057 -159.096110 1008.222675 68 59 81
162.185764 83.022618 982.640934 137 118 137
167.411435 -199.520338 1010.771084 97 77 83
164.042366 122.217345 978.190327 58 47 67
164.410937 240.072036 964.492035 94 78 108
164.410937 240.072036 964.492035 94 78 108
167.623436 69.768488 979.829121 86 65 89
166.460168 223.425841 963.525200 53 42 62
170.948601 -231.950521 1005.672932 84 64 76
171.503437 188.155007 965.728378 65 49 63
170.077932 85.097790 974.058723 131 117 141
174.450421 -60.204011 989.947224 79 59 80
174.450421 -60.204011 989.947224 79 59 80
172.751021 155.097675 967.212391 131 118 142
172.366166 97.616339 971.422482 95 77 101
172.719860 231.137896 957.112789 91 65 80
174.031806 205.951405 958.050823 83 66 89
174.031806 205.951405 958.050823 83 66 89
174.950850 40.448117 973.560429 134 120 144
174.950850 40.448117 973.560429 134 120 144
183.055782 -238.334870 997.161484 73 54 68
179.636467 76.385707 965.318871 81 67 95
184.015381 -195.559895 989.285660 138 123 145
186.711359 -283.073163 997.961712 73 52 66
184.197068 50.534254 965.936375 79 63 75
185.797381 -12.724821 972.619057 127 111 133
187.153518 -239.831376 994.046307 85 61 70
187.947512 -291.184258 997.304344 85 69 90
189.651084 -324.629402 1001.152897 61 42 57
186.624229 -203.393507 987.956810 118 102 124
185.813451 157.076097 954.002094 86 70 89
186.224639 52.482349 962.174034 133 115 136
190.327418 -121.706295 978.336906 65 48 71
190.819860 -89.379096 975.631237 65 50 77
192.314208 -199.601233 983.436012 71 53 70
191.190934 -0.335365 963.192654 114 96 112
174.713135 254.488230 927.802086 83 62 75
192.261076 -2.371660 962.535477 62 45 61
190.830350 87.208390 953.238869 50 43 63
194.721317 -48.935598 966.614914 138 119 137
190.610838 231.766963 936.406231 144 125 147
199.530303 -285.344243 983.145332 75 53 67
199.530303 -285.344243 983.145332 75 53 67
202.212834 -200.820994 973.674965 64 50 62
204.714489 -181.138921 969.250584 83 70 95
202.383709 102.187431 939.317417 76 68 97
205.773258 87.483102 941.507149 63 48 68
207.037163 -10.335682 948.073006 76 66 91
209.196997 -172.478974 961.702824 86 64 95
211.191368 -286.152220 972.297192 70 45 60
208.262300 27.509338 941.943264 71 56 79
212.294412 89.394855 934.211731 132 113 127
210.914588 159.324217 927.003002 87 73 97
212.886786 89.468998 934.442043 132 113 127
211.552763 -87.123460 948.559952 129 102 122
217.803597 -328.273797 970.300198 95 75 98
217.458367 -13.556865 936.594296 76 67 93
220.165634 -171.793830 952.167988 91 68 92
218.840718 52.610201 930.257797 99 80 104
221.097469 -120.841396 945.072651 129 110 131
224.649286 -49.446419 935.817623 64 50 71
227.249122 -286.487532 956.420612 74 61 69
225.559068 -42.291981 932.528305 86 66 85
225.174141 214.267945 902.908993 148 128 148
233.490920 -245.196056 947.804737 67 47 67
232.067323 -248.714614 946.816349 125 106 129
231.627941 -252.696896 945.495987 101 75 99
229.930115 47.588912 918.185711 65 52 72
234.409785 -288.565230 949.692631 74 57 73
234.409785 -288.565230 949.692631 74 57 73
229.671288 178.365219 904.135418 87 78 97
232.093954 27.646706 918.324852 142 123 139
234.059024 -13.520162 920.636082 65 54 69
231.668210 223.051310 898.545647 62 54 62
240.354896 217.875314 903.424454 122 108 131
234.722376 41.670901 912.087059 100 84 109
241.766286 169.371486 893.058968 79 58 83
241.766286 169.371486 893.058968 79 58 83
239.356947 151.125395 893.099880 131 118 139
241.928339 176.302743 890.979099 63 50 67
241.928339 176.302743 890.979099 63 50 67
229.854512 251.353621 869.222832 112 101 115
249.937916 20.152600 897.064018 98 79 99
256.230354 164.779329 875.253582 80 71 103
256.230354 164.779329 875.253582 80 71 103
254.330611 232.651496 863.116360 145 129 133
246.158099 254.702902 851.895618 44 26 18
244.520044 268.563628 848.313046 39 22 20
263.376832 234.842849 847.007561 147 128 138
259.770060 271.328282 834.220314 44 14 16
269.348550 269.075704 826.071930 109 97 110
182.700503 -180.108571 811.785698 175 169 169
192.117321 -171.000218 803.639126 154 126 125
-455.215836 205.710244 1609.963799 95 74 82
-451.698160 201.354933 1606.397820 155 123 137
-451.698160 201.354933 1606.397820 155 123 137
-451.076174 164.824879 1610.841560 94 71 84
-451.076174 164.824879 1610.841560 94 71 84
-457.205534 -166.023266 1651.697731 74 59 74
-450.523424 138.278973 1611.500168 90 71 78
-447.106218 255.897355 1595.930004 143 119 128
-446.808910 20.685083 1621.164131 89 62 68
-446.449041 11.855768 1621.846390 92 68 71
-450.043535 -193.465269 1646.088409 130 114 137
-450.043535 -193.465269 1646.088409 130 114 137
-441.827250 -15.318529 1619.873238 69 54 67
-440.525389 -167.654324 1633.158493 85 70 94
-431.499004 203.153086 1587.156963 103 78 90
-498.304558 327.454019 1379.822540 100 113 104
-428.099298 107.715917 1596.183205 92 72 78
-428.089952 321.682048 1558.517170 107 99 106
-433.023119 -135.066664 1620.843315 137 117 134
-432.533121 -135.197580 1621.688271 137 117 134
-431.328678 -98.265260 1615.491104 82 53 63
-431.830788 -149.529016 1622.570419 146 125 145
-429.257822 -166.987145 1622.786331 70 59 70
-427.174854 -190.685236 1624.782181 88 77 93
-425.008488 -155.176818 1618.987465 57 43 56
-420.836592 62.077940 1589.737225 92 69 83
-421.774769 29.665211 1592.256069 91 71 84
-423.917246 -163.610637 1617.323494 122 102 124
-422.054672 -58.097720 1601.200867 135 113 126
-421.920156 -169.350803 1617.647362 52 37 46
-414.640760 104.721773 1582.303238 89 67 81
-414.640760 104.721773 1582.303238 89 67 81
-415.805435 51.108503 1587.046814 78 58 61
-415.858698 33.272740 1589.601803 73 54 65
-415.858698 33.272740 1589.601803 73 54 65
-414.672375 32.684454 1583.653450 65 48 62
-416.202116 -157.180905 1607.014656 70 55 77
-406.379890 312.281847 1549.533272 80 61 68
-409.073162 171.765578 1564.210129 251 181 164
-408.854771 148.836339 1567.532825 255 190 172
-407.084179 140.638220 1563.676357 122 87 101
-407.693338 17.098075 1580.784702 50 38 49
-406.764984 23.163153 1581.040859 59 38 43
-402.026367 310.993910 1545.357800 72 62 70
-401.428843 15.327950 1574.664688 81 59 80
-402.724886 340.261030 1517.168045 38 38 44
-398.549986 138.358343 1557.422256 115 96 112
-392.696285 194.422150 1550.808907 63 48 52
-392.517209 172.756624 1552.593517 66 48 59
-397.799087 -128.907442 1583.753777 85 59 74
-394.690871 -18.848929 1569.368649 137 116 136
-386.935377 250.601077 1536.550045 63 50 56
-386.935377 250.601077 1536.550045 63 50 56
-391.333103 -92.125338 1578.104115 80 55 63
-390.019250 -14.053318 1567.795181 86 59 69
-388.395309 57.923776 1559.179306 69 56 72
-389.691281 -0.316161 1565.189266 80 52 62
-387.319374 127.265835 1548.043251 55 46 60
-387.528157 8.495156 1562.376404 116 95 117
-381.068587 290.723777 1524.541569 118 100 118
-384.303236 66.563874 1551.993847 83 64 78
-381.288338 218.046832 1533.336449 111 95 112
-381.288338 218.046832 1533.336449 111 95 112
-382.728076 135.968399 1541.712475 132 115 131
-382.356429 10.841738 1557.173443 53 38 46
-382.880759 -22.525460 1559.456158 132 109 127
-379.486680 92.134905 1545.446968 72 58 68
-377.969980 129.582226 1538.404560 119 96 104
-378.280854 -23.332116 1554.109192 141 118 138
-377.893066 -131.376016 1567.535591 83 65 86
-373.453879 128.720677 1536.211872 120 96 106
-369.251704 253.347039 1522.744656 61 46 56
-370.326543 249.269438 1521.017075 114 99 119
-374.400854 16.417179 1547.991562 133 109 129
-369.024777 151.478624 1531.167126 63 46 59
-371.824384 15.487573 1542.214680 128 103 123
-369.682050 85.314393 1534.780693 90 69 93
-367.849350 142.264223 1527.844620 40 27 34
-367.735314 130.190742 1529.472923 61 46 55
-367.351627 11.438889 1542.489243 55 44 56
-364.637160 127.532363 1527.414799 118 96 108
-366.121101 -27.939048 1543.265247 75 51 65
-361.411643 -28.640151 1538.808155 77 52 69
-358.293319 200.650859 1509.573650 47 35 49
-354.486847 249.405289 1504.902649 43 33 43
-355.906844 190.559816 1510.182095 49 36 44
-358.198762 -179.124391 1557.297325 69 50 56
-353.093982 169.156969 1511.089325 53 41 55
-355.086064 83.393967 1519.119072 118 99 116
-355.908322 -175.802910 1548.592281 69 53 65
-350.228524 224.354935 1499.333477 63 48 61
-354.846215 -217.243028 1555.352402 62 44 54
-355.177736 -219.243598 1552.384377 97 86 107
-353.931499 317.883110 1474.481392 111 98 113
-353.931499 317.883110 1474.481392 111 98 113
-345.279241 244.134593 1499.467564 40 33 40
-349.602222 -29.485422 1529.117489 59 46 63
-347.101927 72.323936 1516.814899 126 101 112
-349.878669 -79.776347 1533.498287 84 61 72
-349.878669 -79.776347 1533.498287 84 61 72
-348.747993 -219.489694 1548.840427 73 49 60
-343.075156 101.286328 1506.449318 120 101 123
-339.941597 151.297796 1504.679966 50 45 61
-344.495058 90.541857 1504.043865 49 45 59
-346.701455 -203.569841 1542.693710 77 58 71
-340.776205 241.911578 1487.948132 42 33 44
-341.296768 149.905038 1499.312687 49 38 53
-344.768143 -181.644738 1538.753223 135 117 126
-344.768143 -181.644738 1538.753223 135 117 126
-344.259286 -165.181744 1537.014961 67 59 82
-342.316914 52.510780 1508.514118 125 98 114
-340.147424 49.969193 1512.784004 63 48 64
-337.603927 28.252876 1509.632492 136 119 136
-336.268330 163.906372 1491.795063 107 92 102
-336.835933 24.958180 1507.952690 60 49 65
-337.719226 -67.010975 1519.146061 128 115 137
-335.978246 -31.020844 1514.560986 59 45 59
-331.999874 190.283072 1490.158081 104 89 93
-332.395530 157.424915 1490.423870 111 94 109
-332.544994 85.768634 1494.900131 47 35 49
-328.324723 137.522471 1487.302208 45 37 49
-327.361917 -30.449933 1501.941681 131 116 134
-323.588181 24.312337 1493.102264 75 57 76
-324.820232 -181.472313 1518.509388 94 80 97
-324.849892 -232.872057 1523.489475 80 61 75
-366.319251 165.687382 1386.101818 35 29 43
-321.138263 -175.070453 1514.301872 135 116 135
-321.138263 -175.070453 1514.301872 135 116 135
-362.725997 182.761848 1384.588337 42 41 46
-314.672160 44.881800 1484.744072 113 96 109
-314.672160 44.881800 1484.744072 113 96 109
-315.831900 -162.664866 1507.055187 140 118 141
-316.047931 -167.440617 1506.800938 66 56 75
-316.047931 -167.440617 1506.800938 66 56 75
-360.368824 184.285355 1377.009201 33 33 45
-314.742422 -120.372486 1500.182056 71 53 68
-314.052653 -126.259160 1500.794411 78 62 75
-357.353354 155.563915 1376.990509 103 86 133
-311.436510 -138.647962 1498.731995 60 40 64
-309.756708 -183.182347 1505.483627 53 45 56
-307.657957 -228.128123 1505.760384 86 70 93
-306.112981 -131.159246 1491.570854 82 67 87
-306.112981 -131.159246 1491.570854 82 67 87
-334.443998 127.354383 1405.807972 46 41 64
-303.075933 -120.200300 1488.446140 77 55 71
-303.051615 -227.434325 1500.526237 74 57 74
-301.350665 -115.802729 1487.190342 66 49 64
-301.385117 -120.928347 1486.894035 124 107 126
-300.183606 -169.050395 1490.924740 74 62 79
-299.459720 -220.187831 1497.038555 93 70 79
-299.459720 -220.187831 1497.038555 93 70 79
-298.660874 -133.484888 1486.181450 82 65 87
-346.797204 291.791463 1342.805958 48 44 63
-298.485017 -227.809095 1493.084908 65 55 77
-343.493223 169.091952 1361.044598 66 55 74
-296.382284 -182.190013 1487.139893 129 110 129
-343.108439 162.778234 1360.525703 34 32 47
-341.062021 277.595901 1344.722557 20 22 27
-292.335606 -185.476387 1486.177063 58 47 62
-291.593647 -152.690375 1480.788708 93 69 88
-290.481019 -34.557426 1466.444874 81 61 78
-291.674209 -227.736831 1487.320423 83 72 96
-339.728379 291.203594 1336.500168 50 43 60
-288.372493 -145.192266 1479.354763 51 32 36
-336.241436 166.616154 1354.540539 88 78 122
-336.241436 166.616154 1354.540539 88 78 122
-314.227271 38.914669 1406.490993 28 24 37
-285.985661 -228.749752 1484.083271 71 60 82
-333.474994 276.942134 1337.787724 26 21 24
-333.474994 276.942134 1337.787724 26 21 24
-286.638784 -164.914429 1472.826481 124 111 132
-332.793069 165.296292 1352.363586 44 35 50
-332.793069 165.296292 1352.363586 44 35 50
-282.999945 -35.800654 1461.070061 86 66 89
-332.745981 162.442100 1352.300835 101 88 132
-272.827840 -45.890072 1448.386765 136 117 144
-438.124323 303.290129 1135.882950 130 108 101
-270.912337 -139.526474 1456.777954 68 54 80
-269.442415 -50.751203 1447.440434 84 62 86
-319.145489 179.534900 1336.626625 48 38 73
-266.706705 -42.811841 1442.056370 134 118 145
-267.807460 -197.091019 1459.823418 138 118 143
-267.343140 -205.309248 1460.860443 137 120 146
-282.210350 82.665563 1395.090485 34 27 57
-281.719255 82.630622 1395.597839 34 27 57
-264.218044 -205.315924 1460.086918 70 46 57
-264.245582 -211.859918 1459.430122 94 74 91
-264.245582 -211.859918 1459.430122 94 74 91
-313.077784 179.330695 1330.703068 43 36 63
-312.901020 179.379869 1330.873680 43 36 63
-313.178372 150.795817 1332.601166 117 95 140
-260.167980 -172.895503 1448.531246 75 62 86
-308.019972 175.390184 1322.993469 45 36 62
-271.223259 105.365551 1380.175304 45 36 61
-266.822004 108.837140 1377.194786 35 25 54
-301.912141 154.754913 1318.211174 50 41 74
-248.409057 -190.322638 1440.000916 74 60 85
-247.070408 -236.536860 1444.509888 72 60 83
-402.585745 257.049823 1149.821377 43 34 59
-407.382059 269.292879 1133.022976 70 59 81
-407.382059 269.292879 1133.022976 70 59 81
-262.062883 -3.465661 1377.717495 51 43 91
-262.062883 -3.465661 1377.717495 51 43 91
-237.622881 -239.526606 1437.079716 144 122 139
-266.532898 -58.806163 1367.252064 35 28 51
-250.723076 69.321984 1365.088272 40 31 58
-250.723076 69.321984 1365.088272 40 31 58
-248.037505 22.955088 1368.346405 45 33 61
-278.673887 -156.785381 1346.673679 63 52 113
-260.919380 -73.787594 1357.754803 94 81 137
-276.218867 -156.923306 1346.393490 106 94 153
-243.113375 18.412051 1364.994144 38 29 58
-243.031549 59.177887 1354.969692 31 26 55
-243.274856 50.166845 1354.794312 42 35 68
-410.600471 297.523952 1092.392445 57 42 66
-276.004267 158.770192 1295.402241 63 49 89
-253.658509 -123.719180 1352.585793 45 36 62
-216.700768 -238.601995 1412.829399 86 59 83
-360.443664 -148.747993 1236.643124 45 36 62
-234.864283 -1.337835 1354.343605 37 29 56
-213.575816 -232.558727 1409.594822 66 42 53
-246.487260 -122.294056 1351.102924 34 31 59
-240.691924 -24.687786 1342.939854 88 75 127
-238.959122 52.869731 1334.318352 94 82 132
-229.764342 12.298787 1350.146866 43 39 86
-264.828753 171.482944 1281.112480 74 58 99
-264.828753 171.482944 1281.112480 74 58 99
-394.862509 220.438266 1100.394726 55 42 91
-394.862509 220.438266 1100.394726 55 42 91
-240.332341 -139.312434 1342.527866 89 72 128
-392.713213 223.626876 1096.511841 50 39 86
-392.713213 223.626876 1096.511841 50 39 86
-223.748779 -49.475840 1346.398067 41 33 70
-267.534542 -246.732998 1300.856781 64 44 62
-388.186455 264.005256 1083.745766 98 80 114
-234.827256 139.781189 1282.945633 39 33 45
-234.827256 139.781189 1282.945633 39 33 45
-382.928491 263.371539 1078.072643 99 81 121
-224.389815 -171.290314 1329.000950 26 19 38
-207.801938 -69.653392 1334.616661 32 33 67
-207.801938 -69.653392 1334.616661 32 33 67
-205.811286 31.649971 1321.982765 36 31 59
-206.738567 95.157439 1312.998295 37 28 53
-205.205274 60.406756 1318.331909 30 23 52
-204.762053 -2.985306 1321.532822 38 30 51
-375.201178 203.236628 1081.179047 56 41 67
-229.167390 -175.256109 1292.878628 79 66 121
-208.048797 54.575819 1288.232899 92 81 137
-206.022835 -12.864403 1291.933250 35 23 53
-205.245233 -24.869980 1286.583424 97 77 109
-205.245233 -24.869980 1286.583424 97 77 109
-364.532137 204.452062 1071.495247 44 33 74
-364.960885 217.836332 1069.064140 51 39 66
-218.241858 -140.261209 1282.643318 46 37 82
-368.039703 268.524718 1053.440857 51 47 89
-239.522433 50.129133 1238.596344 37 27 61
-197.133398 82.505995 1274.085140 37 27 61
-196.870530 100.845194 1271.290588 43 34 62
-220.014668 152.291656 1238.234806 75 57 102
-195.984697 5.259672 1280.621052 52 39 67
-216.660404 -171.779299 1276.830196 110 94 147
-214.691925 -165.701330 1277.226448 98 82 122
-454.821539 8.866376 978.017807 42 35 62
-359.258056 248.271728 1061.247826 129 110 153
-357.322240 201.114225 1063.433361 60 45 92
-357.104087 220.188522 1061.070919 68 48 90
-188.382649 50.547332 1268.792534 52 40 66
-206.000185 -173.548448 1273.593521 48 37 74
-187.367618 -12.289428 1274.697971 40 31 61
-448.772287 27.661026 970.545197 94 82 133
-186.345255 16.844325 1268.096542 84 72 125
-208.359456 163.925040 1224.768162 65 49 86
-445.966768 65.383381 965.204239 36 29 66
-191.342390 -160.378933 1272.950649 20 14 38
-420.394325 -144.552779 1015.332508 27 25 50
-198.576462 -163.533974 1263.600349 84 68 113
-196.290195 -171.704400 1262.491417 110 93 141
-182.777226 -70.147032 1265.870857 86 78 138
-347.274017 203.501010 1052.608109 64 47 85
-200.703621 166.145754 1215.949345 62 49 91
-194.475675 -174.768436 1257.573032 29 23 45
-194.679546 142.950761 1214.011669 65 47 80
-166.555321 -10.968875 1248.080349 127 142 161
-165.259278 -0.673459 1245.988369 107 125 147
-177.597153 -207.943487 1253.904533 110 87 118
-162.898970 6.524135 1243.438816 74 95 124
-165.035737 0.120375 1241.564846 98 130 152
-175.496328 74.047858 1221.869087 54 56 74
-336.347055 258.472371 1030.994511 98 79 122
-149.715865 27.976632 1251.994896 16 17 36
-181.656337 -266.971111 1250.985909 55 38 78
-184.570169 164.211094 1200.325203 70 56 104
-340.668583 265.896034 1024.138451 59 49 93
-158.489406 -135.088158 1253.438091 49 40 72
-156.493437 -101.170921 1250.285816 79 70 122
-333.616900 257.795763 1027.032280 99 81 120
-333.616900 257.795763 1027.032280 99 81 120
-155.372381 -53.941017 1244.540024 92 112 131
-174.204016 66.928411 1209.611130 90 114 133
-174.204016 66.928411 1209.611130 90 114 133
-153.714001 -56.225067 1240.653896 116 138 152
-328.001666 218.398333 1031.066418 80 59 109
-353.127766 285.169125 997.112846 68 43 52
-139.312482 -55.950165 1248.686981 75 97 117
-326.112080 239.687777 1026.357651 66 48 82
-325.426865 214.401865 1028.829193 63 50 100
-149.215162 -111.460507 1241.427803 37 30 63
-167.879856 43.772817 1204.208565 119 115 124
-148.742473 -126.095843 1241.436005 53 40 84
-323.604131 223.846960 1026.742744 67 52 104
-167.996597 47.108391 1202.373600 95 98 106
-148.601305 -56.038487 1231.798458 119 132 152
-146.984088 -10.415185 1227.742863 126 142 160
-170.463026 136.000490 1187.245750 113 67 69
-167.730081 47.044721 1199.110126 129 135 147
-324.006176 256.752896 1017.158222 101 82 116
-324.006176 256.752896 1017.158222 101 82 116
-138.586116 21.118878 1227.225304 25 53 87
-148.330474 -151.246762 1234.044266 114 95 143
-139.108837 30.060971 1223.400497 40 59 90
-138.641536 -18.125606 1228.571320 129 157 174
-157.397521 44.797927 1202.690792 186 191 197
-142.815447 -5.489322 1222.084332 48 71 110
-150.874221 8.243021 1211.595917 172 195 206
-319.282722 227.946401 1020.986748 79 60 112
-164.823186 63.869715 1187.342739 172 184 191
-159.999466 48.871782 1193.542099 107 106 114
-132.783031 -12.364031 1223.262691 98 120 145
-131.811202 -18.028738 1224.541950 161 187 202
-316.314983 215.496945 1018.895817 57 45 97
-161.271405 142.304611 1177.663612 66 54 91
-159.358931 54.024631 1188.729572 187 195 199
-128.883410 -4.308298 1216.110802 179 203 214
-129.001379 -104.016531 1220.804214 79 68 120
-126.079512 -3.279124 1211.396217 144 160 177
-309.790516 226.115608 1010.823154 79 60 92
-151.963067 159.049606 1166.397953 73 58 91
-150.383055 143.931150 1167.717457 65 48 81
-138.965225 -212.221813 1214.164162 110 81 115
-130.363333 69.532841 1182.016087 74 73 95
-138.394547 -269.541121 1206.874180 105 92 145
-128.704083 71.400952 1178.636074 160 168 176
-128.483808 67.006379 1177.191544 164 177 185
-140.024841 172.186780 1152.363491 79 72 100
-113.782239 -85.428429 1202.104378 27 24 52
-140.238440 156.050301 1151.573753 66 50 85
-127.067769 -214.143562 1198.200512 105 86 139
-111.325395 83.585477 1178.906155 41 35 81
-107.948375 44.971448 1183.576775 99 87 143
-126.577544 -178.676486 1187.953663 75 65 111
-131.584990 135.952747 1149.248791 61 47 76
-296.552777 253.767085 989.108372 103 82 123
-104.543614 40.717047 1180.641842 42 35 66
-130.166245 -249.800420 1185.672855 27 25 50
-104.654729 -36.869693 1182.946491 98 78 109
-122.220826 -180.612838 1181.319141 70 51 97
-289.102769 238.341689 988.811207 67 48 100
-114.223814 -165.712523 1183.662701 86 73 121
-101.597428 -32.189322 1179.504013 34 25 62
-122.812390 -272.848892 1184.155846 35 25 59
-97.627872 6.603651 1176.796055 37 30 61
-114.574718 -160.381186 1179.154778 44 36 75
-96.861595 70.725703 1170.179272 39 28 64
-118.915153 -179.688525 1176.010323 55 44 81
-118.915153 -179.688525 1176.010323 55 44 81
-112.384915 126.531041 1149.295044 87 72 125
-95.865840 89.236051 1167.417622 40 32 65
-286.427855 212.566137 988.641167 55 41 78
-286.463499 221.075249 987.697220 62 44 85
-286.463499 221.075249 987.697220 62 44 85
-294.603634 260.368466 975.604057 58 50 92
-95.565498 -25.400254 1177.054691 42 35 62
-109.213829 -216.685128 1183.814716 112 91 142
-97.007293 -31.445774 1173.865414 111 88 118
-112.490153 -170.615816 1174.798679 39 34 67
-94.429857 3.935862 1172.168446 42 37 83
-93.521363 -14.943929 1174.623394 94 78 130
-114.581251 -181.644690 1170.813084 119 103 151
-111.294734 -173.836398 1170.641518 98 81 128
-105.845702 -144.139183 1169.334793 101 82 137
-88.557190 5.578953 1167.454815 42 29 66
-87.597418 88.356811 1159.242535 46 36 69
-109.752393 -179.886127 1167.804432 108 93 135
-280.930424 220.020771 981.150341 74 57 102
-106.763387 -175.125575 1169.048023 56 39 80
-104.711676 -161.510587 1169.117165 46 40 82
-82.403523 73.736751 1160.963821 48 38 75
-82.403523 73.736751 1160.963821 48 38 75
-104.624188 -164.736509 1166.446781 117 99 144
-85.455084 6.391687 1164.261627 94 82 133
-99.672788 -218.804288 1174.653053 113 92 141
-285.697842 283.325481 964.913273 72 55 74
-130.796146 37.775156 1126.105309 36 29 66
-82.046390 68.991441 1154.596615 36 29 66
-80.900389 69.200325 1155.177212 36 29 66
-100.598228 -173.646045 1163.111591 39 34 70
-97.067571 -206.463623 1166.323853 92 75 126
-97.688341 -185.972369 1157.288170 61 43 86
-94.948840 -183.057320 1157.631969 122 103 145
-94.143862 -189.329123 1153.764343 61 43 83
-94.695562 152.797282 1109.029675 66 53 89
-94.695562 152.797282 1109.029675 66 53 89
-266.598105 251.088643 959.800625 111 91 133
-46.634951 41.851518 1155.195713 34 23 61
-43.393818 46.068603 1152.617550 38 31 61
-40.554509 81.659299 1146.592712 48 37 76
-33.523613 78.535306 1140.009117 52 41 85
-53.827661 -204.914212 1151.440907 55 41 76
-78.701156 153.013372 1091.023731 46 38 60
-32.395002 18.443744 1138.566399 60 47 85
-32.395002 18.443744 1138.566399 60 47 85
-251.017904 217.125201 952.552509 53 40 91
-36.881635 26.690900 1132.695580 108 94 143
-250.338030 230.920410 950.148296 58 45 79
-31.374562 -110.582244 1147.954178 103 85 123
-27.327839 64.915091 1133.354473 95 85 136
-27.327839 64.915091 1133.354473 95 85 136
-31.321961 -84.400910 1144.989395 106 90 132
-74.028224 132.873333 1088.901615 117 97 139
-248.297524 192.322290 951.937008 64 49 85
-72.489929 151.559293 1085.567760 62 48 94
-36.450058 29.646164 1122.858620 113 100 146
-71.073347 149.833381 1083.137989 81 65 97
-70.643491 148.156142 1083.558178 61 48 89
-20.551273 47.077876 1123.661137 24 19 42
-15.818581 66.247380 1123.209000 56 42 87
-241.713643 248.293638 934.953308 97 78 119
-241.713643 248.293638 934.953308 97 78 119
-244.788384 166.771317 938.507748 53 47 88
-40.382090 -179.980195 1112.278748 114 96 150
-52.311319 133.464336 1065.694427 68 55 103
-52.311319 133.464336 1065.694427 68 55 103
32.150742 -263.205004 1155.295467 123 106 118
35.418820 -263.089085 1153.144646 121 104 114
35.418820 -263.089085 1153.144646 121 104 114
36.836156 -263.040209 1153.323650 118 102 114
8.621360 20.682061 1102.779675 50 38 72
43.302444 -143.127859 1135.641861 68 51 74
42.763287 -272.725463 1147.220516 84 65 86
43.932143 -282.189226 1146.274471 84 61 85
-36.123461 124.915338 1051.526833 67 51 94
49.784362 -293.525243 1140.101528 110 81 108
54.102981 -226.949930 1131.122589 82 62 86
-27.516612 118.920052 1041.486263 96 78 113
60.729325 -326.875114 1134.543896 106 79 101
31.097588 47.957572 1073.524761 35 27 59
-17.525318 152.346253 1028.457928 49 39 70
-17.525318 152.346253 1028.457928 49 39 70
66.119337 -97.599506 1103.428745 153 132 155
-16.385670 145.134890 1027.504349 64 48 95
72.033429 -295.424652 1118.610954 111 88 114
75.102621 -213.695359 1109.414005 86 71 94
78.377151 -309.413147 1116.821194 101 73 89
13.873845 98.811042 1037.121964 129 114 162
13.873845 98.811042 1037.121964 129 114 162
7.918116 112.451804 1030.711651 68 66 98
78.243643 -134.248483 1096.117496 111 87 103
78.378314 -112.178528 1094.087791 74 60 73
31.168580 63.187331 1047.787476 119 103 146
79.450911 -76.075405 1088.986778 72 56 89
-133.894837 153.579974 934.581470 43 39 77
28.691119 87.110108 1037.408352 121 101 154
26.282018 98.108894 1025.171661 127 110 166
90.645802 -219.472647 1090.922832 98 81 107
38.897422 19.178878 1037.664509 33 31 72
22.662966 -21.434444 1028.108025 35 29 73
99.374998 -344.651055 1096.704388 88 63 87
96.629328 -98.130053 1071.496868 94 72 93
96.629328 -98.130053 1071.496868 94 72 93
16.615704 139.667892 994.373226 74 59 94
114.261127 -153.071487 1060.659695 70 56 70
22.975175 221.766686 974.177170 104 90 136
26.629147 137.094676 983.292866 63 52 86
115.636992 -75.960475 1050.682354 152 130 150
120.487118 -192.411733 1062.842274 69 52 74
22.902940 191.401422 974.442768 43 35 60
25.534448 191.946888 975.173950 43 35 60
28.509650 118.132746 981.978989 117 99 141
119.857037 -78.786349 1048.133659 61 45 65
122.054470 -309.615564 1068.270779 99 75 96
123.162782 63.731486 1031.001854 66 52 76
125.490367 -256.015563 1058.693314 150 125 135
125.664186 -256.005788 1058.746815 150 125 135
128.075194 -149.738359 1047.306347 88 63 79
129.762435 -237.075758 1054.767036 92 73 101
135.483003 -224.772334 1048.806190 86 72 95
132.224023 1.964458 1025.083065 135 115 132
136.912799 -278.866625 1050.392532 97 73 97
133.494580 96.665251 1014.045811 143 119 134
139.750910 -165.155351 1036.490440 85 65 84
138.848364 -193.794096 1038.573456 99 78 100
140.077353 -248.286176 1042.840481 103 78 107
141.300368 -159.820974 1035.278606 88 72 88
140.143383 -226.956534 1040.551949 132 111 131
140.143383 -226.956534 1040.551949 132 111 131
141.626918 -195.316172 1037.369061 111 89 104
141.503620 -163.339329 1033.142185 138 124 148
144.260192 -351.496410 1050.449944 152 126 135
145.809329 -318.458414 1046.334362 83 57 74
142.303157 -35.011914 1017.602158 82 60 87
143.863261 83.960146 1003.522110 78 60 85
146.565866 123.715293 999.491310 63 55 80
149.625766 -291.357183 1037.370110 96 72 101
147.721505 31.636176 1006.877327 82 63 81
147.476208 99.275637 998.847771 136 119 142
149.554551 60.901767 1002.511501 99 73 91
147.287726 118.117881 996.266365 122 107 131
151.048934 57.633585 1001.912403 142 119 126
152.520597 34.402019 1003.839016 84 65 84
152.463663 -52.160305 1009.865570 132 111 132
152.427065 44.314316 1000.936890 98 76 99
152.229476 60.518008 998.843479 155 133 137
148.598933 242.267895 980.290413 73 61 80
156.414759 -201.068878 1023.140335 85 70 90
154.911017 91.079348 994.540501 47 37 48
154.911017 91.079348 994.540501 47 37 48
157.859623 -240.118623 1023.588943 79 64 83
161.915255 -280.760598 1024.329662 91 67 85
161.570036 -226.502442 1019.250584 83 64 90
157.215321 169.991601 979.722118 88 70 98
165.236247 -194.479382 1012.848663 142 126 148
165.190029 -7.305339 995.040703 91 72 94
161.185396 89.709294 984.555817 63 46 62
161.185396 89.709294 984.555817 63 46 62
167.814922 -159.573114 1005.627346 70 58 77
165.832770 73.323953 982.232285 141 123 142
164.832306 240.342641 964.667416 100 86 113
167.805099 191.577554 967.829418 166 135 142
172.685528 -216.165376 1005.477810 101 75 88
172.846770 -235.912132 1006.081676 150 125 138
172.846770 -235.912132 1006.081676 150 125 138
175.113571 -257.290554 1008.439445 107 78 102
174.834096 -120.925999 995.390224 73 56 71
174.943113 -202.804661 999.251938 130 112 133
175.423992 126.924932 967.395782 79 66 93
174.154830 206.110811 958.095360 88 70 94
182.484293 -339.501953 1008.567524 99 72 94
181.721520 -86.303180 984.956360 78 61 86
179.438007 33.832973 972.784996 139 118 142
182.332945 -238.212729 996.830463 82 64 77
186.305237 -262.558651 999.580002 150 124 138
177.362454 239.604664 952.088261 101 83 105
177.607560 239.587975 952.147484 101 83 105
180.029380 127.358902 962.663937 134 113 130
181.627059 46.147743 969.376278 148 134 156
186.192727 -255.907154 996.921444 90 65 78
187.242174 -354.972267 1005.864334 97 70 85
187.242174 -354.972267 1005.864334 97 70 85
184.706378 -5.046442 974.216938 127 114 135
189.293194 -324.582458 1000.994015 69 45 59
184.388638 44.297001 966.533566 86 66 91
189.053762 -277.351213 995.009327 99 68 90
186.958539 36.181056 963.322163 140 121 144
191.451311 -89.477170 975.912189 78 63 90
192.080605 -7.997916 968.363476 61 49 73
193.985140 -201.386619 979.325962 90 76 91
190.032136 137.829292 947.231865 130 115 129
197.113371 -196.878147 978.345776 138 124 148
172.619927 254.565620 926.935577 91 69 81
192.244089 92.837834 948.048306 137 118 139
199.866664 -285.470748 983.297825 82 58 71
196.529484 93.231869 948.967552 137 118 139
198.146880 221.596479 935.208511 135 114 129
198.774731 178.223944 937.446499 84 64 85
198.774731 178.223944 937.446499 84 64 85
208.813667 -167.139399 966.563034 91 68 92
208.813667 -167.139399 966.563034 91 68 92
204.740214 124.059606 939.534664 70 57 82
205.918622 -122.514236 960.978794 72 58 81
204.673862 85.138690 942.531395 127 113 134
207.243037 -203.169727 967.437267 101 80 99
207.242084 -10.281433 948.151779 84 72 99
210.181999 -172.710800 962.121582 97 74 102
205.782485 154.032135 932.419491 76 62 79
205.782485 154.032135 932.419491 76 62 79
208.660388 124.581110 935.263348 89 72 95
214.025664 -169.461882 958.645248 86 68 96
214.025664 -169.461882 958.645248 86 68 96
211.561465 -11.810961 943.255329 88 75 98
206.184220 234.027195 919.438076 92 69 88
211.382842 159.388590 927.183628 94 80 103
210.483885 20.319538 937.883091 148 130 151
210.483885 20.319538 937.883091 148 130 151
211.232233 156.077635 925.404644 141 122 136
220.538425 -171.883571 952.322006 107 84 105
216.826081 80.332845 925.869751 139 124 148
218.046403 90.844142 925.053883 124 107 130
223.248911 -45.110527 937.821102 137 120 142
221.740031 -17.390276 934.072018 148 130 144
221.740031 -17.390276 934.072018 148 130 144
223.959661 -163.102424 946.800137 97 74 101
225.546789 -291.174889 957.951546 140 122 139
226.934028 -326.411128 961.410713 144 118 136
222.725368 -27.653262 934.230709 140 125 148
224.677944 -51.867676 935.159206 115 99 118
227.950406 -276.934409 954.742336 93 63 79
228.297043 -266.260171 952.925110 105 80 94
225.258923 -88.921893 936.440372 138 117 137
223.108268 95.025563 919.313145 87 69 100
222.230673 78.508013 918.369102 149 136 160
227.382064 223.530436 905.927277 62 45 54
228.492928 39.727345 920.023823 94 72 95
228.492928 39.727345 920.023823 94 72 95
229.046702 34.158975 920.586681 88 65 84
229.046702 34.158975 920.586681 88 65 84
234.295988 -127.388632 931.850052 98 78 105
234.295988 -127.388632 931.850052 98 78 105
234.120798 27.812487 918.383121 145 128 141
232.157111 223.329473 898.708057 69 58 66
234.510875 -10.471080 918.878365 139 116 131
232.474661 121.585059 906.872940 91 72 97
232.474661 121.585059 906.872940 91 72 97
237.176156 220.720291 893.238640 83 64 83
240.197730 155.206180 895.826244 89 70 93
251.344633 -330.912709 934.325600 105 76 100
257.508707 14.624226 890.336990 138 118 140
255.763507 164.908302 875.090885 88 80 112
245.153403 254.754758 851.574993 47 27 20
245.842123 269.062448 848.705196 45 25 17
-110.695922 70.436883 760.180473 212 176 159
257.577634 259.383821 834.540462 132 100 115
-30.567700 73.961830 768.863487 212 176 159
-490.702820 42.764661 684.014988 136 104 97
-276.157737 53.715962 722.181845 136 104 97
154.875934 136.314321 791.435003 136 104 97
-465.538836 45.893523 684.439516 212 176 159
-53.133708 61.305344 755.427361 212 176 159
222.009373 91.184711 800.086403 212 176 159
313.518357 122.550714 812.487984 212 176 159
-567.716265 323.786974 1374.353695 40 59 30
-448.855257 201.661825 1600.894547 146 120 130
-449.159145 19.554882 1620.860291 128 104 111
-449.159145 19.554882 1620.860291 128 104 111
-448.797226 17.686068 1621.406555 85 63 76
-445.660496 14.716314 1620.089912 139 109 116
-443.186808 256.148386 1589.206314 77 62 67
-444.923496 14.550571 1620.989799 139 109 116
-443.072462 164.718294 1601.597214 83 66 80
-443.072462 164.718294 1601.597214 83 66 80
-445.267010 -13.605438 1622.226143 76 61 72
-446.986532 -84.092200 1628.693962 146 123 131
-443.768263 11.354131 1619.984818 41 28 30
-439.980459 137.311375 1602.573204 76 60 70
-442.293406 -15.261979 1619.052887 64 50 61
-440.477180 -13.021225 1617.834663 134 111 125
-436.921167 20.252514 1611.513901 82 61 73
-435.274792 63.706356 1604.866982 76 57 70
-433.002234 163.766193 1592.256260 86 62 71
-433.002234 163.766193 1592.256260 86 62 71
-431.670618 203.186321 1586.862564 101 80 90
-431.491804 163.430834 1589.610100 89 67 80
-429.886484 291.316175 1573.484039 128 107 111
-434.399557 -50.418681 1613.303375 139 115 129
-434.439278 -92.096961 1617.258835 122 104 119
-428.134394 313.570380 1568.675137 79 65 71
-433.221817 -121.224535 1618.527985 69 47 56
-433.221817 -121.224535 1618.527985 69 47 56
-431.566143 -89.116555 1615.863800 46 33 35
-431.779289 -92.629135 1615.460587 66 44 50
-430.876064 -134.011197 1618.016052 77 57 60
-424.593687 133.696306 1588.392830 66 52 62
-422.830629 139.866650 1582.864380 100 76 82
-423.951578 16.084620 1596.813393 139 113 128
-425.288486 -155.096722 1618.515968 49 39 55
-423.472071 -163.834131 1618.097305 121 101 123
-420.202971 62.202793 1590.758705 90 67 80
-420.370722 29.576519 1594.574356 81 69 84
-423.431301 -51.125622 1599.999332 124 101 117
-421.638870 -68.257254 1602.125931 90 68 86
-421.638870 -68.257254 1602.125931 90 68 86
-417.620468 138.987017 1576.598072 124 100 114
-418.586016 -52.219504 1598.120403 127 102 123
-414.910889 104.735303 1581.865501 85 62 76
-415.163946 183.634210 1569.875050 123 94 104
-414.251900 203.463411 1566.602421 141 114 118
-414.855242 160.936332 1570.350838 47 28 20
-414.855242 160.936332 1570.350838 47 28 20
-412.956429 215.775752 1564.788914 101 76 81
-412.946510 206.919122 1564.258671 142 114 128
-406.583405 312.209892 1549.123001 74 58 64
-410.060215 21.859674 1583.634186 124 104 125
-409.886312 -16.817226 1587.305164 143 113 123
-409.645748 130.325818 1567.035007 79 65 70
-410.848236 -130.488491 1599.242973 121 108 125
-411.848116 -137.068391 1598.401546 106 88 116
-407.509899 17.244831 1581.052685 46 37 46
-406.122780 59.558386 1574.841499 60 48 59
-405.318356 159.885669 1559.932327 53 34 24
-405.318356 159.885669 1559.932327 53 34 24
-405.308962 -65.906984 1584.595108 76 54 66
-404.759312 -23.692435 1579.405594 125 101 124
-405.053568 -85.390639 1586.768246 85 57 70
-400.954247 197.631490 1553.733063 52 40 53
-403.066206 317.210937 1532.571602 96 75 84
-397.035599 285.672474 1542.066765 55 45 57
-401.772833 -54.552817 1579.942036 132 105 127
-401.266336 -17.363057 1575.548267 135 109 129
-398.449183 134.141159 1558.737659 114 98 114
-397.150517 -60.003394 1576.136494 124 105 124
-397.929883 -95.714772 1577.931023 134 105 116
-393.069720 123.962343 1554.952335 100 88 108
-392.653608 101.561451 1557.050991 77 64 81
-400.598049 339.770174 1512.000656 32 31 32
-390.041685 155.051970 1549.456692 68 52 64
-388.225365 286.559892 1534.179878 53 44 54
-387.906742 290.344691 1533.041286 113 97 113
-393.438649 -106.515574 1578.053284 88 65 71
-391.800332 -87.604541 1577.351856 137 112 131
-391.905236 -22.586967 1567.918777 61 47 65
-389.073372 57.953078 1558.162308 62 51 68
-389.948845 -162.546623 1578.916550 67 56 88
-389.948845 -162.546623 1578.916550 67 56 88
-387.556171 218.886971 1530.093384 63 50 61
-384.879160 219.633484 1532.657051 63 50 61
-387.298226 -136.132014 1575.144577 70 58 74
-382.255268 96.951771 1547.628593 133 113 131
-382.297683 10.812747 1557.264233 43 34 42
-379.862452 193.597019 1533.601761 60 51 63
-381.537104 -27.853867 1559.236431 138 114 132
-380.102587 64.896941 1548.281384 71 49 53
-379.599357 92.077291 1545.289421 69 58 65
-378.366518 74.195307 1547.363663 49 39 51
-374.411535 194.142079 1531.379890 56 44 54
-375.277734 153.559685 1535.220337 113 95 104
-379.590201 -145.469713 1568.971920 73 61 80
-377.704740 -90.134418 1562.600327 65 43 47
-377.744913 -92.866653 1562.055111 106 83 103
-377.744913 -92.866653 1562.055111 106 83 103
-374.282217 134.633398 1533.163738 113 95 102
-375.404572 9.197657 1547.861671 104 91 115
-375.874329 -89.643037 1560.070515 128 108 126
-374.662185 -62.177181 1555.237103 59 43 55
-374.662185 -62.177181 1555.237103 59 43 55
-373.240995 -59.529215 1553.964901 135 106 124
-370.609641 74.413115 1536.037064 57 45 62
-366.871428 247.439623 1516.142273 52 41 58
-367.213655 55.268639 1536.685753 77 58 74
-369.810271 -117.430270 1554.878998 82 59 70
-374.573565 324.614096 1488.051987 56 43 47
-364.023972 151.283109 1523.160934 123 102 118
-362.653637 272.950196 1508.365822 52 44 59
-366.559410 -27.862853 1542.644501 70 48 65
-367.454600 -165.047479 1557.932091 60 52 75
-368.096542 -124.449527 1550.602722 77 64 85
-359.601355 285.201144 1504.161072 52 41 51
-360.786557 174.347985 1516.825676 120 102 122
-363.702583 -70.505965 1544.623947 130 109 129
-359.716749 155.650437 1520.217991 127 108 119
-361.296463 -28.643593 1538.967037 77 57 69
-353.766990 122.134781 1516.949463 75 54 68
-356.473470 -184.815168 1552.005005 73 51 63
-356.473470 -184.815168 1552.005005 73 51 63
-352.926493 189.497483 1505.448246 62 47 62
-352.926493 189.497483 1505.448246 62 47 62
-355.742288 -186.218739 1548.334217 116 97 112
-350.778222 150.090766 1508.734894 54 44 55
-353.917313 -188.239574 1546.991634 48 32 42
-351.487827 -174.470687 1544.351768 122 104 125
-349.833393 -79.677159 1533.543777 78 54 65
-349.603367 -72.186375 1532.407379 72 56 67
-354.125237 317.981315 1474.217606 111 96 113
-345.885420 -67.952287 1532.357025 59 46 58
-345.885420 -67.952287 1532.357025 59 46 58
-345.205212 307.004929 1483.765984 59 47 49
-348.790288 -186.844718 1542.853928 125 103 129
-345.931005 4.465854 1519.000053 111 93 107
-342.602897 236.997795 1491.868591 101 82 88
-345.071697 97.827548 1506.027794 74 57 76
-344.466591 -96.758145 1530.926800 46 35 48
-343.717098 27.391028 1515.135002 121 101 117
-344.540262 -70.311952 1526.057053 116 100 126
-342.022085 6.035032 1518.998623 48 36 46
-343.176794 36.811087 1513.351822 66 54 69
-341.157293 305.896139 1480.735111 47 41 39
-343.459892 90.612614 1505.388260 49 43 59
-344.621921 -181.655669 1538.943958 131 113 124
-343.340349 -64.488316 1525.283337 131 106 119
-342.654014 -94.847935 1527.876949 129 109 128
-341.821742 -26.044729 1519.770241 129 108 129
-343.056345 -97.274244 1527.052307 63 45 62
-341.088676 -0.828144 1515.475845 123 105 120
-338.356042 146.580017 1495.967484 49 44 54
-339.064097 49.398610 1507.176685 60 47 65
-339.414811 -6.349438 1513.664055 75 53 65
-339.414811 -6.349438 1513.664055 75 53 65
-331.949949 186.756146 1489.753819 33 27 37
-331.949949 186.756146 1489.753819 33 27 37
-342.613077 318.390226 1458.448601 86 78 89
-335.464859 -68.294442 1516.293144 63 52 73
-332.984519 47.135198 1502.698040 71 57 75
-334.656978 309.683943 1465.727425 97 85 104
-330.688286 182.713234 1484.160519 100 88 111
-329.353929 66.499192 1498.852825 42 36 52
-329.532743 72.148758 1496.131516 113 95 110
-323.624349 290.229058 1467.464924 27 21 26
-326.483202 24.774297 1495.540714 133 109 124
-326.780295 -143.408978 1515.400505 127 112 135
-325.388503 80.124575 1487.302685 104 89 117
-324.868488 0.766262 1495.392704 123 110 135
-323.310018 24.330413 1493.446064 72 59 78
-324.459195 -179.757857 1517.248821 69 53 74
-322.132778 92.102575 1485.269070 56 49 66
-316.074204 27.087137 1487.683487 77 59 78
-316.544199 24.803302 1486.882877 118 98 110
-314.631748 150.973141 1472.078133 113 92 102
-315.023589 1.973238 1488.968086 134 122 136
-315.023589 1.973238 1488.968086 134 122 136
-317.445970 -179.610837 1508.618832 134 115 134
-314.577985 32.633895 1484.723186 56 41 48
-314.857912 -135.593045 1504.470730 141 122 140
-375.360441 293.839979 1377.345562 114 96 136
-316.167831 -167.429900 1506.653595 63 55 73
-312.454176 23.396863 1486.045456 49 43 61
