ply
format ascii 1.0
element vertex 1068
property float x
property float y
property float z
property uchar blue
property uchar green
property uchar red
end_header
-183.605146 92.903197 1192.168236 115 99 152
-180.864620 -63.712198 1223.776817 35 32 67
-200.767183 -216.759253 1191.145039 106 94 145
-192.654443 -143.295467 1200.018883 85 69 119
-254.599285 205.468369 965.758801 72 56 104
-254.599285 205.468369 965.758801 72 56 104
-190.497959 -166.039252 1204.741478 79 68 115
-190.286946 -138.587093 1196.614456 32 28 64
-187.656319 -250.088263 1218.533325 55 43 103
-187.656319 -250.088263 1218.533325 55 43 103
-186.712933 118.718576 1159.199142 59 45 76
-252.967501 190.283751 963.928986 66 50 84
-252.290225 183.132970 965.481853 62 46 83
-300.177264 33.544058 856.041622 40 30 68
-175.921714 36.507812 1195.769310 38 30 60
-188.759518 147.726059 1141.745090 132 112 143
-184.033561 -130.647492 1197.213840 42 36 72
-246.694422 190.094364 959.794903 69 52 92
-246.694422 190.094364 959.794903 69 52 92
-169.170046 77.303809 1185.347271 37 27 64
-170.594859 -4.913381 1194.134235 51 38 63
-178.345239 -86.550581 1186.428738 31 30 64
-178.345239 -86.550581 1186.428738 31 30 64
-169.065094 35.747465 1190.947819 55 43 77
-184.967458 -227.645302 1186.106014 29 24 52
-184.967458 -227.645302 1186.106014 29 24 52
-295.188570 -1.977511 853.870964 33 30 54
-166.477668 57.262051 1183.598328 106 92 149
-165.770090 77.112198 1182.251549 92 79 132
-165.770090 77.112198 1182.251549 92 79 132
-178.298819 -118.621790 1178.722286 110 92 145
-173.264170 133.474398 1143.350792 62 46 84
-162.773716 77.228814 1178.123379 44 36 65
-162.276483 61.424255 1179.573345 32 26 59
-162.522888 35.811701 1182.696819 53 42 71
-163.023531 7.579407 1184.848118 35 27 57
-163.023531 7.579407 1184.848118 35 27 57
-170.733273 -124.114478 1181.665421 33 27 64
-163.024247 93.235064 1163.924217 52 41 92
-167.201030 -123.142982 1183.658504 29 24 63
-169.583881 -148.713315 1177.932167 93 79 132
-157.071280 60.786515 1175.264263 35 25 60
-158.278036 -45.943838 1181.189156 23 23 51
-158.278036 -45.943838 1181.189156 23 23 51
-164.150739 -226.317120 1177.303028 101 88 141
-152.753627 -126.369107 1184.792805 40 32 61
-158.680999 -147.300172 1172.907734 29 27 57
-161.551499 -228.060627 1172.376060 50 34 72
-148.123670 -116.968799 1176.635456 42 33 62
-144.654429 -12.092990 1165.449333 113 122 148
-144.485009 -15.026259 1166.150665 122 134 157
-144.159389 -17.885631 1166.322994 119 132 153
-155.498171 144.887054 1109.451866 115 102 133
-147.250402 60.340774 1140.679646 86 100 109
-142.329931 -82.178754 1172.791004 79 66 118
-149.610639 111.399138 1121.634483 191 146 132
-141.508710 -122.459829 1172.352028 43 34 64
-148.846912 118.066812 1119.876289 58 46 80
-151.488054 -227.356386 1157.318211 101 87 142
-135.203719 -47.158340 1168.380451 52 68 91
-134.877992 23.623371 1153.586197 22 21 48
-219.572210 177.692175 932.746506 55 44 94
-143.845117 52.202129 1121.928978 32 43 71
-221.574044 149.893880 925.453854 75 66 112
-142.358398 34.210238 1125.138664 112 112 120
-143.342316 48.486909 1120.111561 174 187 192
-133.444440 -54.399729 1156.689835 33 28 63
-147.622132 -236.864972 1149.503326 117 99 145
-145.207179 149.650276 1098.849201 55 47 60
-130.149639 -30.771562 1158.765507 58 54 96
-131.097853 -40.302458 1156.010437 46 40 71
-139.482582 35.695782 1124.218845 93 93 101
-134.709191 -0.624229 1138.401508 183 212 224
-132.025731 -14.004694 1145.375824 64 95 125
-132.025731 -14.004694 1145.375824 64 95 125
-133.983171 2.152758 1138.014698 112 135 155
-217.100120 222.721267 912.505341 51 44 84
-215.424562 218.014407 913.082218 157 128 172
-121.753848 -7.873130 1149.475384 16 38 68
-133.065772 128.480971 1102.947998 74 58 86
-133.065772 128.480971 1102.947998 74 58 86
-212.735057 148.811340 921.088123 89 79 130
-131.353009 129.753530 1101.893806 67 50 81
-128.099525 44.397235 1119.932938 113 122 136
-118.786716 17.075488 1144.231606 91 116 137
-121.652555 -95.877647 1150.625038 73 65 113
-115.392005 15.984948 1143.711662 81 103 122
-123.611593 45.998293 1120.497608 156 170 179
-118.003190 -0.314782 1134.007740 65 73 99
-114.357305 0.785174 1134.540272 104 122 141
-109.025061 11.749653 1144.588089 50 66 84
-122.808599 -183.192539 1137.383556 101 77 110
-117.193806 48.221737 1117.159653 149 157 168
-113.897574 52.650297 1110.778809 81 85 105
-193.130684 197.890341 922.505283 83 63 102
-118.942964 -233.525014 1125.181007 41 27 59
-119.841981 -214.619565 1118.677998 27 23 44
-186.467814 215.268826 917.111015 117 97 133
-113.646758 -158.106947 1114.477921 39 29 57
-111.002445 126.409197 1081.987381 77 62 91
-183.331668 190.312922 922.197437 72 54 93
-100.933409 -97.104305 1127.151775 32 25 51
-110.701811 -148.541725 1113.289261 85 69 104
-184.871149 221.819758 910.981178 75 61 108
-97.580063 60.771704 1110.327816 99 88 142
-107.840300 -157.397306 1112.366676 42 30 74
-93.559557 28.086135 1111.509705 40 30 68
-110.093892 -235.828924 1109.596062 25 21 45
-91.748047 53.864437 1108.439159 33 22 66
-89.372891 54.700434 1105.647659 88 79 134
-172.665250 162.551773 925.034332 80 63 108
-100.397134 -141.070473 1105.645752 49 38 78
-89.513522 -72.429711 1116.592789 71 64 121
-87.664312 39.280459 1104.864025 44 36 70
-101.036596 -155.062592 1101.701641 35 27 52
-88.569278 -13.375281 1108.995247 47 38 68
-88.569278 -13.375281 1108.995247 47 38 68
-99.356037 -125.200462 1100.010300 98 82 137
-99.017400 113.532746 1069.732952 114 93 140
-100.834513 -157.988369 1099.386787 107 91 145
-100.834513 -157.988369 1099.386787 107 91 145
-86.088723 -26.633504 1107.998180 33 30 54
-82.801789 68.780625 1098.298836 91 80 135
-82.791567 68.243957 1098.337364 93 81 135
-82.791567 68.243957 1098.337364 93 81 135
-94.504273 -143.759167 1098.779488 104 90 136
-166.280079 221.226954 910.415173 75 62 101
-161.578083 179.142022 923.136616 75 56 110
-80.184722 -0.943058 1100.416088 37 27 63
-80.184722 -0.943058 1100.416088 37 27 63
-81.066209 -26.555431 1101.699066 41 36 65
-78.860706 38.532242 1097.823143 49 37 77
-79.662043 -14.619718 1102.383900 50 39 76
-89.762384 -137.834561 1096.031380 89 74 130
-76.699191 53.335297 1093.269730 96 83 139
-90.735847 -158.821297 1090.291882 104 89 138
-159.153676 221.057367 909.823990 78 67 111
-74.267209 52.252007 1090.826702 36 26 67
-80.933017 -61.741728 1086.250305 89 74 112
-75.550258 122.612047 1045.116329 42 35 58
-75.550258 122.612047 1045.116329 42 35 58
-136.187601 176.699412 921.292496 72 54 89
-56.844246 97.686476 1071.561718 58 50 74
-71.662110 -223.830414 1078.188133 66 57 101
-48.963726 -24.722292 1095.523167 50 40 68
-48.153305 -24.714182 1096.420670 50 40 68
-135.918713 220.571971 909.224415 85 72 119
-58.924311 -164.086258 1089.569283 25 19 42
-0.364109 189.207733 1147.037983 101 85 133
-65.659457 123.969483 1037.171173 50 37 75
-63.571310 109.275556 1035.389233 57 49 62
27.058464 194.683969 1177.805614 101 85 133
-32.719967 31.225020 1073.971653 25 20 45
-31.369606 48.004180 1073.576736 42 34 64
-54.759198 110.004187 1025.857735 49 42 63
-34.991640 18.103087 1062.397385 62 52 106
-50.621712 113.500714 1024.528122 49 43 60
-28.439149 5.909351 1070.911789 60 51 100
-32.119939 15.120663 1062.378120 117 103 158
-33.413768 18.095644 1059.363365 74 59 112
-24.380253 -38.988662 1078.469372 47 42 77
-25.476792 -18.861893 1071.669102 116 100 146
-26.837900 14.691639 1063.893318 107 92 149
-69.061339 135.110533 980.584240 147 122 162
-20.376725 -12.033100 1068.325996 41 33 63
-20.376725 -12.033100 1068.325996 41 33 63
-18.682002 50.204837 1063.638020 37 28 68
-38.339823 107.159388 1009.049988 61 49 82
-26.366764 -71.450490 1044.466591 29 27 60
-34.900665 101.953542 1008.446407 57 43 81
-34.900665 101.953542 1008.446407 57 43 81
1.497028 -271.691155 1102.805901 85 68 95
-30.482835 97.026390 1003.664780 111 93 143
3.226159 -130.846596 1076.672173 31 32 64
-29.549211 95.580667 1000.934029 137 116 148
-31.213060 214.656997 986.110592 72 62 89
-196.530032 -55.421579 770.737171 138 116 135
11.911096 -274.682689 1092.845535 71 47 63
12.941931 -273.110771 1091.698837 129 109 119
12.941931 -273.110771 1091.698837 129 109 119
2.318996 46.164009 1042.437458 36 33 64
-21.207201 194.489539 982.642555 80 66 120
-19.919981 175.985277 983.740997 45 43 53
9.983124 58.752984 1033.941841 37 28 65
-15.820564 116.919696 986.778641 52 41 77
-15.942398 188.548362 976.560879 36 30 65
-13.869913 105.344796 986.136341 54 50 64
-5.615969 90.614200 996.467304 55 49 75
30.846730 -147.196352 1062.916851 99 84 116
-9.276282 178.034627 972.150898 54 44 89
-7.627644 200.702739 968.840313 48 43 64
32.574695 -251.828718 1068.542194 96 74 102
34.451446 -231.302428 1067.151356 84 68 99
2.736644 91.315264 989.675140 60 59 93
36.631718 -196.229589 1062.089443 70 51 74
9.055921 84.074873 992.280293 123 106 163
17.175426 69.317681 1001.071262 47 42 89
-0.361691 177.588010 963.004017 46 36 81
42.282078 -193.467379 1056.221104 111 84 95
42.282078 -193.467379 1056.221104 111 84 95
44.317335 -218.934512 1055.231190 75 66 94
1.720875 212.226963 954.899788 110 89 135
46.872798 -231.407118 1053.813839 91 70 84
49.081662 -161.526358 1046.804810 82 67 95
11.369129 -26.272675 980.536842 98 84 139
12.928912 -25.036740 982.016945 108 93 145
9.615772 193.222094 952.577114 53 41 74
9.615772 193.222094 952.577114 53 41 74
12.103608 117.084169 958.565807 58 46 85
54.821146 -69.077802 1033.096027 80 66 109
55.703408 -123.620856 1037.741184 91 69 93
55.339938 -265.232706 1047.859478 91 68 83
55.339938 -265.232706 1047.859478 91 68 83
14.053157 97.604519 958.710480 49 39 71
56.861758 -123.280311 1035.300827 91 70 87
56.861758 -123.280311 1035.300827 91 70 87
58.264428 -100.483251 1033.520508 75 58 71
57.862473 -236.200047 1044.067764 81 64 83
14.374931 211.556077 943.051052 106 84 130
18.534721 98.575497 953.126526 52 46 59
17.659526 151.161826 946.308517 25 26 40
62.926453 -188.467693 1033.147430 83 68 95
62.721860 -218.267536 1034.995461 77 62 91
19.115703 211.199069 938.304901 107 84 134
65.246201 -70.272189 1023.755932 71 61 91
67.443681 -190.532076 1028.789997 84 72 98
69.956034 -153.226709 1023.613071 92 70 95
74.699068 -129.708314 1019.907761 150 123 128
80.205184 53.028399 1002.160549 132 109 123
79.397798 -237.812352 1022.071171 73 60 84
83.144534 31.562376 1001.231289 128 111 134
81.300294 -234.026742 1018.329620 90 65 78
84.699768 50.473863 998.699951 121 103 118
89.187658 88.837010 989.436817 77 57 80
89.944184 -72.901624 999.826527 71 63 94
95.521635 87.039876 982.194614 77 60 86
94.656104 -170.768070 1001.440430 75 66 75
97.634465 202.692056 974.459076 64 52 60
95.493120 -133.558345 998.276424 62 51 69
96.985775 24.533430 985.827923 80 73 105
100.889421 158.878565 975.391674 134 114 121
98.045659 78.486621 976.112080 139 123 149
101.502275 131.605959 975.364494 76 53 70
102.214122 24.138583 982.196903 92 77 106
103.949142 164.115047 971.996784 134 109 120
101.357412 -112.876916 990.108776 125 106 131
104.978800 162.130916 972.151852 92 65 82
102.222908 -6.410564 981.872654 54 47 66
103.698242 86.908269 976.101971 146 123 127
105.121803 130.559480 972.278690 145 123 129
104.052293 19.085751 979.855537 79 66 84
104.123604 12.642802 979.475498 78 65 85
105.453289 86.028498 974.257565 82 63 87
107.926440 188.480937 967.588425 43 33 47
107.926440 188.480937 967.588425 43 33 47
-28.537396 238.595581 801.856709 148 130 117
104.155540 -207.059073 992.881393 124 108 112
104.155540 -207.059073 992.881393 124 108 112
109.288538 -106.076825 982.498646 62 47 63
108.579040 -174.101651 985.488415 71 57 80
110.887754 77.956295 967.953491 97 75 102
110.887754 77.956295 967.953491 97 75 102
114.061964 191.860926 961.777210 109 92 101
108.349037 -278.648829 991.586494 90 71 88
110.310650 -134.123325 981.399536 147 127 138
110.887957 -170.850658 983.761597 84 64 83
113.548875 105.558026 964.855194 81 60 78
113.666415 -23.462316 973.673344 126 108 125
115.336978 -25.336453 972.100830 74 57 78
116.070986 138.575828 959.742355 141 120 135
115.681016 104.116225 961.645603 81 59 74
118.042350 100.487339 962.234116 149 129 134
120.035636 102.928698 960.321712 130 109 120
119.696319 177.742732 953.971863 118 96 121
119.696319 177.742732 953.971863 118 96 121
121.632814 100.165045 960.145664 57 50 75
117.434907 -275.817227 982.094955 78 65 83
117.434907 -275.817227 982.094955 78 65 83
122.560823 -80.328637 967.510700 69 53 62
125.439978 137.083662 952.561378 148 125 129
126.183343 197.749138 947.830200 72 56 75
125.293303 -106.744170 966.991615 52 44 63
124.913311 -76.906383 963.099575 73 56 84
129.247844 156.410444 950.175285 92 67 82
129.358912 100.381494 949.611378 55 49 73
131.151140 192.910337 943.851566 120 104 133
130.886400 45.163143 952.565861 82 64 87
128.735495 -140.350902 962.905979 68 54 80
131.137884 -46.023786 956.418514 50 43 64
132.980192 148.523879 942.876530 141 122 137
129.141641 -229.328442 965.591526 72 59 83
134.949481 -11.796156 953.197098 80 65 86
134.734130 128.369892 942.410946 131 115 139
136.834311 44.865224 946.011925 71 63 90
133.569050 -209.371114 961.175442 60 47 64
138.195014 186.892796 936.397171 56 42 61
138.497400 17.586462 945.149803 71 59 84
140.139461 130.606174 937.490559 70 55 74
136.116052 -199.061799 956.470013 77 60 75
139.406121 -6.882713 945.143890 83 68 94
137.838852 -178.172803 955.025387 79 62 72
137.939811 -226.768994 957.504845 138 115 135
140.598845 -108.179331 949.837208 73 59 72
142.662489 -46.844456 943.930435 64 49 64
148.848152 190.306628 925.965118 130 105 115
145.373106 -207.596970 948.189640 74 59 70
152.313280 195.762479 922.298336 142 115 130
152.200270 25.530529 930.551052 86 68 81
149.098337 -280.292797 949.072075 59 43 53
149.632597 -240.376115 945.305252 93 64 79
156.527460 190.394449 918.380451 75 52 66
156.248033 129.619384 922.012138 82 68 88
155.993927 -81.630486 934.326649 64 51 75
153.451741 -280.933976 943.283176 87 65 84
150.072277 214.953756 903.301907 82 61 74
160.023379 187.372744 912.672710 43 34 52
158.452678 -172.772765 933.095264 126 112 138
162.411797 19.522196 921.083260 50 39 56
164.353037 102.254343 917.167473 56 48 73
161.796796 -247.578049 932.804489 71 53 63
165.648568 -165.862763 926.512146 79 65 90
165.648568 -165.862763 926.512146 79 65 90
166.788650 -145.151460 924.429607 138 119 132
168.085551 -109.795511 920.555401 60 48 69
167.147326 -178.284907 923.961639 91 72 88
171.501827 64.871943 908.612347 71 63 91
171.236908 20.706660 910.004425 131 112 129
171.451461 -14.026634 912.547207 73 63 86
170.294654 -152.488339 920.192814 81 62 93
179.018271 148.417139 897.686863 119 105 127
177.551579 20.114276 904.625797 140 121 139
180.207872 191.388404 894.203663 123 110 124
180.781651 151.003742 897.269058 65 53 70
177.333415 20.495166 901.458359 138 121 143
178.510439 -151.700485 911.123562 85 65 88
180.015111 -247.252512 915.625858 140 115 126
181.112599 -108.517456 906.822491 129 111 130
184.294546 -111.663699 904.744911 64 52 67
185.659516 20.085932 896.332741 139 120 140
188.451302 193.096256 885.601330 128 113 135
188.233161 -14.041898 897.594547 138 113 122
190.872943 181.259441 883.556938 137 121 139
192.780352 188.368320 884.656715 49 35 49
188.120174 -213.988829 905.090046 68 51 64
188.120174 -213.988829 905.090046 68 51 64
191.501176 35.672218 887.489223 67 55 73
196.111369 -16.628931 889.289474 64 53 69
199.903750 188.237023 876.731396 63 52 64
198.136020 123.639297 878.286076 65 52 71
193.717015 -285.786390 900.535965 90 67 78
197.404647 30.919179 883.069706 98 81 107
197.404647 30.919179 883.069706 98 81 107
197.581124 -286.159062 896.888638 89 64 80
205.862999 186.519718 872.806072 68 53 70
206.175327 123.842955 872.124958 73 63 83
209.497499 32.947513 872.636223 97 79 108
210.640430 -223.608971 879.315853 141 120 145
218.117332 196.191382 853.832722 95 71 81
218.117332 196.191382 853.832722 95 71 81
209.573317 226.010203 844.594765 251 181 164
209.573317 226.010203 844.594765 251 181 164
220.626211 36.574543 859.661102 76 60 84
223.354769 148.814392 851.188755 61 52 78
223.354769 148.814392 851.188755 61 52 78
215.887260 230.549741 835.875320 36 23 18
224.827814 97.335798 851.245975 68 55 75
-21.024173 -70.853257 684.872675 193 179 172
226.911616 124.382257 849.810123 121 108 129
222.503209 236.958718 829.002380 75 69 71
221.860242 222.763920 828.952503 253 183 165
222.058797 215.100312 828.938007 255 191 171
231.415009 234.930444 820.542526 89 83 85
256.787777 234.258962 818.040848 18 17 12
256.787777 234.258962 818.040848 18 17 12
710.001659 298.799658 1117.988110 105 97 104
568.408251 -94.955736 1017.697048 118 78 80
-482.732487 260.931921 1160.338974 175 156 138
-381.659293 -210.432386 1512.841892 89 65 81
-375.794506 -166.462600 1502.470207 82 69 91
-407.735634 264.670634 1294.258022 40 61 36
-362.504768 198.528707 1455.186844 65 49 59
-368.794155 -169.759631 1493.236637 129 113 136
-357.522368 242.419100 1446.045303 73 59 70
-357.842636 247.313237 1441.843510 132 115 127
-363.128757 -3.713340 1474.746227 127 101 120
-357.371831 196.037149 1449.843216 136 111 122
-357.371831 196.037149 1449.843216 136 111 122
-361.568642 -55.162430 1476.240158 72 53 63
-362.026739 -110.254264 1482.752705 79 66 89
-359.542370 -19.002070 1470.867729 131 106 124
-360.386539 -79.366052 1478.087330 62 55 67
-357.335234 0.279749 1468.016720 81 59 64
-357.335234 0.279749 1468.016720 81 59 64
-351.358724 195.866752 1443.026352 120 99 110
-361.803031 -212.115932 1490.350246 70 57 76
-356.115270 -20.289610 1468.823624 75 58 68
-349.283743 242.287922 1436.610985 71 60 71
-356.856656 -80.063653 1474.924088 66 56 70
-353.928518 -21.517040 1466.054916 66 50 65
-346.165252 197.351909 1438.955688 58 51 56
-351.081848 -19.816068 1460.756397 130 104 119
-345.438290 153.997803 1442.350292 100 76 87
-345.438290 153.997803 1442.350292 100 76 87
-346.912670 77.338445 1451.207542 70 48 57
-340.608883 199.171019 1432.536316 117 96 109
-345.293355 3.357059 1453.480434 135 111 125
-345.283818 3.345438 1453.501320 135 111 125
-348.004699 -103.353894 1463.712978 79 57 71
-345.606518 -121.743548 1464.721107 77 61 73
-344.862199 -143.637228 1466.378307 67 59 71
-345.444918 -170.611882 1468.178654 73 62 79
-337.387109 137.197185 1431.813049 116 93 100
-337.546253 109.065437 1435.843468 130 105 107
-343.760324 -162.480938 1466.573715 88 82 98
-337.980628 258.626032 1403.507805 50 49 50
-334.727979 135.173786 1429.088020 28 15 15
-339.837003 -141.284871 1463.746166 118 95 120
-339.837003 -141.284871 1463.746166 118 95 120
-330.128407 241.920328 1415.467072 72 55 61
-339.764667 -134.247386 1456.276608 51 40 56
-340.076590 -171.748984 1460.188198 112 103 121
-334.757447 5.060815 1441.552067 69 53 66
-328.757119 224.961591 1417.015076 129 107 109
-328.478885 243.403935 1413.349819 125 112 118
-333.467722 17.418189 1437.393665 63 50 66
-328.182459 174.469876 1418.093014 140 109 117
-329.241633 129.246032 1422.621632 242 171 157
-327.037740 94.800812 1428.080654 54 44 56
-325.322580 192.790651 1414.146042 123 99 112
-322.362185 221.267176 1412.156773 60 47 52
-328.344941 4.820315 1434.172630 48 34 43
-328.344941 4.820315 1434.172630 48 34 43
-331.874251 -160.604489 1453.647804 133 119 136
-328.792548 -27.004614 1437.893486 95 75 96
-325.079536 98.828560 1422.729588 116 95 108
-323.038769 39.542848 1429.064655 75 59 70
-327.945399 -153.232503 1448.417282 65 50 64
-276.119065 126.620471 1545.464706 96 69 72
-321.391845 118.393278 1416.639709 104 64 64
-321.482468 123.548114 1415.310192 83 47 47
-323.338270 3.471754 1429.601002 83 63 78
-317.366076 241.593289 1401.870537 59 50 58
-315.710497 145.920038 1409.034157 111 95 108
-314.632559 147.442079 1407.557964 59 47 59
-319.690037 -139.571679 1438.059711 56 48 71
-313.847232 37.865883 1416.313744 65 54 70
-313.554430 15.872043 1420.384216 73 58 71
-314.784813 -8.887432 1420.928383 75 53 67
-314.784813 -8.887432 1420.928383 75 53 67
-310.554576 256.223702 1374.208832 40 35 35
-308.168817 93.623120 1407.286835 50 40 53
-309.869218 48.999745 1409.947205 125 103 115
-308.840847 0.011726 1415.052319 44 31 42
-306.653976 65.542281 1406.360435 74 57 66
-306.653976 65.542281 1406.360435 74 57 66
-309.425235 -117.264926 1423.209190 70 58 78
-306.012654 0.605956 1410.144806 43 37 45
-304.027224 51.528287 1404.161644 51 38 57
-306.223440 -76.038885 1416.396904 85 60 67
-301.059699 116.723216 1395.467567 70 52 68
-299.876523 127.479041 1394.348621 55 46 63
-302.469921 -81.991017 1415.139389 129 102 119
-304.729319 -206.973672 1426.466751 63 46 58
-295.757627 114.930987 1392.193604 61 44 57
-293.854451 191.482711 1383.669567 103 86 99
-294.653559 165.551925 1384.837627 55 42 53
-293.443990 193.735337 1381.617641 45 36 42
-295.400834 12.303859 1401.234818 74 59 73
-297.224593 -31.063744 1402.299500 70 47 64
-293.563128 114.975548 1386.762810 65 48 61
-291.976142 128.116286 1384.500980 51 41 54
-299.839163 -218.228531 1421.389294 118 104 132
-290.065193 164.270091 1381.998825 51 37 48
-287.892103 190.326309 1376.375103 96 80 92
-293.503094 -31.640822 1398.833370 74 50 65
-292.007494 -1.627554 1397.055054 46 37 48
-287.160063 192.299974 1375.543022 37 30 40
-287.160063 192.299974 1375.543022 37 30 40
-292.333150 -155.977142 1408.911228 118 94 113
-287.322378 68.742806 1384.393501 41 34 44
-289.897299 -60.899371 1395.813274 71 55 81
-281.313276 222.633696 1366.525078 105 87 92
-291.022325 -222.838736 1413.160610 57 49 75
-282.694936 116.287005 1376.341343 110 93 108
-289.734030 -232.824063 1411.396885 76 60 78
-283.218098 11.196525 1386.505604 58 49 66
-280.880141 144.070590 1370.275116 47 37 48
-284.329581 -66.617340 1393.122005 73 57 69
-282.526612 40.470392 1380.007458 57 41 54
-285.429859 -142.047393 1399.627781 63 52 63
-307.395506 234.071374 1281.537533 112 92 135
-284.120607 -187.362838 1403.471756 84 73 87
-278.636694 108.837998 1368.766880 87 76 97
-276.888180 16.132586 1375.932789 108 92 120
-276.870728 -5.234785 1377.616501 51 38 48
-276.713395 -31.851646 1380.961514 49 39 52
-279.385042 -153.921020 1393.682098 73 56 73
-274.134398 63.477278 1370.798111 33 29 41
-272.205329 103.419721 1364.638233 43 30 41
-302.903724 129.888189 1286.529064 32 27 39
-272.633958 106.365144 1362.887478 103 81 97
-273.751068 62.692088 1367.068386 39 32 46
-273.388481 -8.581354 1376.619625 105 92 115
-275.284624 -86.884153 1383.329391 134 115 126
-272.788477 -30.020547 1379.480457 123 106 125
-273.763514 -63.481820 1379.701710 64 52 73
-300.686979 139.597666 1282.873058 75 71 107
-300.086570 126.697004 1285.028648 33 28 48
-267.644453 102.613544 1359.646034 38 32 42
-267.644453 102.613544 1359.646034 38 32 42
-348.077178 233.328772 1144.409847 103 83 124
-263.105369 66.045117 1357.221794 50 45 63
-263.704205 -155.335808 1376.660824 68 51 66
-251.560211 -92.461306 1357.376575 69 54 67
-357.063508 233.604836 1072.272682 37 33 50
-250.545049 -144.384515 1360.321903 57 49 62
-264.428306 87.528890 1292.705917 91 75 106
-250.439143 -227.371979 1366.709614 82 66 77
-246.521473 -65.256566 1349.611759 75 61 90
-247.979760 -191.856277 1361.087418 63 52 65
-244.993043 30.801597 1327.483940 40 37 76
-259.410954 80.198932 1286.101627 76 56 98
-244.810462 -190.551710 1356.171608 120 104 126
-241.573262 -158.071089 1352.305031 49 43 62
-349.170208 224.306297 1067.219353 133 110 152
-238.484859 -66.364515 1341.219711 57 45 61
-269.419789 128.146422 1246.895695 50 43 63
-237.212110 -33.156443 1337.341785 87 63 79
-236.539793 -36.318621 1336.973858 83 63 78
-266.107535 141.957915 1245.758343 48 37 78
-246.655536 44.844535 1294.599628 31 31 70
-234.221196 -84.365827 1338.058186 80 60 78
-232.972980 -87.615937 1336.384392 72 53 72
-249.916482 114.549077 1267.582226 54 47 67
-229.557157 -37.765840 1330.296612 64 46 64
-340.772700 201.592994 1062.327766 66 51 101
-339.972973 212.190199 1061.452293 61 44 82
-257.357311 122.588551 1237.817383 38 33 49
-225.789881 -45.000499 1324.601460 124 107 135
-225.789881 -45.000499 1324.601460 124 107 135
-338.183999 197.595596 1059.831810 54 43 85
-224.276042 -65.579891 1326.063919 52 41 62
-224.920321 -120.861280 1329.359150 66 53 77
-335.247803 225.334430 1050.533676 91 74 108
-220.268750 -191.909504 1333.150864 133 111 124
-219.970751 -161.271834 1328.546047 75 49 61
-332.472396 200.043774 1054.182625 58 42 78
-247.841930 140.451241 1227.599716 58 45 84
-220.136833 -229.742885 1332.004547 78 64 87
-217.791009 -159.972441 1325.752163 83 61 85
-214.326715 -164.943063 1321.131516 87 69 97
-214.326715 -164.943063 1321.131516 87 69 97
-210.438490 -94.385272 1312.773132 55 43 59
-479.001188 106.773436 767.875528 72 62 113
-240.525508 124.014044 1218.570995 39 33 53
-324.932551 173.626041 1046.661758 48 36 65
-324.932551 173.626041 1046.661758 48 36 65
-238.192272 126.400685 1216.555119 44 34 70
-207.300115 -214.641166 1316.663361 43 36 60
-206.914401 -208.330297 1315.445232 133 114 139
-235.096383 126.653695 1214.457417 103 87 135
-324.804878 230.819035 1031.329346 49 42 79
-235.695529 -134.417117 1245.933723 48 36 94
-201.384711 -96.142894 1303.687763 49 42 58
-230.711913 -122.727787 1245.964909 62 55 105
-199.901557 -201.829529 1310.443401 135 111 131
-199.901557 -201.829529 1310.443401 135 111 131
-224.637151 -120.362735 1252.533817 62 55 105
-316.076469 210.366035 1035.751247 60 45 91
-217.632842 -68.915522 1249.109459 88 78 130
-313.740849 206.723952 1033.525276 70 53 103
-194.588482 -200.797248 1302.719498 78 63 83
-214.587617 -107.310939 1249.343967 39 31 56
-199.580598 64.914924 1248.206139 39 29 56
-221.285462 137.755144 1198.702335 65 49 91
-309.218097 206.765795 1029.077244 59 44 89
-197.994530 -7.638483 1251.347542 34 28 55
-200.744390 39.219582 1238.722801 47 37 79
-201.295304 37.079164 1237.344170 85 76 126
-186.430407 -246.114349 1295.264435 75 53 67
-216.273165 137.216139 1193.459034 58 43 80
-183.188426 -189.733613 1287.276649 60 42 55
-183.190334 -191.569996 1287.370491 71 50 65
-181.561852 -190.916979 1286.550903 108 90 106
-191.729128 22.900337 1241.165829 48 42 87
-213.268709 134.551167 1188.731861 58 46 80
-213.268709 134.551167 1188.731861 58 46 80
-181.268859 -236.302805 1289.985085 97 67 93
-194.362938 -77.991128 1246.093750 47 32 61
-187.248445 67.649931 1238.242912 31 25 57
-192.324054 -60.165781 1245.066929 44 36 77
-192.324054 -60.165781 1245.066929 44 36 77
-192.858589 -84.612232 1246.490288 40 33 74
-192.858589 -84.612232 1246.490288 40 33 74
-192.098832 -78.256077 1245.965958 44 33 65
-301.452708 174.691021 1022.615814 56 42 77
-186.853802 6.370539 1237.669373 38 29 56
-184.451532 36.347684 1233.405685 36 29 61
-299.166036 171.607292 1020.775795 52 38 75
-183.409309 9.550885 1236.129665 37 28 61
-215.565610 -204.460526 1206.431389 67 59 115
-175.799119 46.669823 1225.827694 29 24 51
-203.252077 158.915913 1162.167740 67 57 89
-203.092766 155.361700 1162.202740 60 53 75
-173.961413 43.057474 1223.295975 28 21 51
-196.294415 -146.305585 1201.022053 30 25 60
-294.402313 143.565404 1003.595257 67 57 107
-196.500754 -153.122246 1197.574425 30 25 60
-205.154848 -204.677844 1189.481544 78 68 122
-190.920532 -157.514477 1200.707150 75 66 116
-285.062075 194.204533 1004.360676 69 52 97
-190.178049 -144.550943 1196.246147 33 23 55
-187.838113 -124.292636 1196.496010 89 74 128
-176.233399 -16.272850 1201.695347 31 22 52
-176.233399 -16.272850 1201.695347 31 22 52
-175.072050 36.669368 1197.096062 37 30 56
-173.220241 62.640864 1194.195461 36 28 62
-199.656558 -221.924710 1185.746098 71 64 121
-283.211350 184.441376 1002.478886 61 45 94
-299.782681 249.460745 967.694664 255 229 216
-187.154472 -131.108844 1191.917896 105 89 135
-170.732343 63.199884 1191.753960 81 72 128
-190.181637 -220.161510 1188.873005 28 18 50
-168.350995 62.176293 1189.150810 33 23 58
-184.937632 -148.132765 1186.985493 93 79 134
-192.906356 -227.193046 1178.127384 77 65 123
-169.272006 -22.677621 1189.983559 101 79 105
-165.085185 60.114229 1186.269569 49 44 95
-166.625619 4.434080 1188.733768 97 88 139
-186.266387 -224.689698 1183.403778 27 26 54
-176.201725 133.490002 1151.201057 62 47 85
-176.201725 133.490002 1151.201057 62 47 85
-162.563074 7.935786 1185.480881 33 24 53
-162.034369 -5.406552 1187.130451 51 39 75
-173.615801 -174.440980 1184.490013 100 76 109
-169.312906 -129.587758 1181.637287 32 25 65
-173.734593 -149.207878 1174.228668 39 26 58
-167.123973 -149.909639 1173.613071 22 21 39
-148.666346 62.454456 1169.306469 23 18 33
-153.958797 -124.605143 1182.651520 36 28 57
-149.410129 58.073717 1167.072296 110 93 110
-164.015734 132.361925 1136.736393 58 44 83
-273.639846 248.519301 956.822014 143 124 117
-149.307835 60.788232 1155.033875 65 87 109
-150.079441 59.130257 1152.510262 38 43 61
-144.730079 -8.872125 1164.552212 115 133 152
-143.959522 -20.921497 1165.497303 122 136 154
-142.552137 -24.180828 1164.901733 103 114 142
-139.441812 -45.430368 1170.570850 19 20 44
-159.301221 -223.112917 1160.352612 103 86 141
-143.345022 -120.572650 1169.378471 38 31 62
-156.129253 -225.171638 1158.981800 64 44 93
-145.148468 55.921549 1142.849731 18 20 27
-151.207733 -177.913785 1159.895897 95 78 132
-139.997387 -116.648173 1166.389465 41 31 62
-252.516675 206.102109 968.612003 65 48 97
-142.517066 -12.066928 1145.720100 122 140 158
-146.853554 36.545169 1134.237099 68 74 84
-133.864093 -91.304016 1161.001873 20 20 48
-250.549340 173.078001 968.433380 61 48 98
-150.023842 -227.633834 1151.653290 46 37 81
-133.545887 -109.348476 1159.583950 46 36 67
-137.127638 -0.331643 1139.929104 168 188 198
-132.505143 -109.057570 1156.351757 51 39 79
-129.458141 -56.922466 1153.205204 15 14 30
-141.575515 -177.961612 1149.667454 103 79 111
-145.547104 40.819183 1119.378090 178 186 192
-142.473865 54.677063 1121.646118 34 40 57
-143.641317 48.774630 1119.652557 168 184 189
-129.669654 -53.126049 1148.688698 88 97 124
-129.635346 -103.936124 1152.888680 86 75 132
-244.904995 202.037954 961.779976 61 49 95
-244.788480 190.843523 962.303257 69 52 91
-129.080892 -57.505047 1146.367455 103 114 134
-249.320483 246.018624 949.882698 65 50 75
-249.320483 246.018624 949.882698 65 50 75
-129.840875 -0.001531 1136.415672 153 170 181
-127.098727 -61.184198 1143.633842 104 107 135
-242.909837 205.628967 958.587742 70 52 103
-132.734275 55.556411 1120.789528 77 66 78
-132.734275 55.556411 1120.789528 77 66 78
-121.154964 -28.323734 1144.860363 51 46 88
-123.242402 -110.079467 1147.521114 49 43 83
-147.915888 141.296041 1084.139442 117 100 129
-131.596041 128.079307 1104.967308 72 57 85
-119.095469 -93.012446 1144.631577 20 23 50
-133.654511 -226.938534 1135.756493 96 84 141
-135.949218 148.459291 1091.433525 58 48 64
-132.731128 -228.411126 1133.072281 50 34 79
-116.348231 -119.672620 1141.096497 42 31 63
-125.107396 128.982043 1098.292923 62 46 83
-114.766169 48.665580 1114.332581 170 187 196
-113.442659 54.599577 1111.340141 146 154 167
-123.781240 -146.376240 1118.120384 33 31 67
-107.855046 -87.487358 1130.937672 31 27 56
-105.876255 -75.352919 1127.974796 69 62 107
122.981477 297.202539 1379.086590 54 43 77
122.981477 297.202539 1379.086590 54 43 77
-110.205424 52.713609 1108.714485 197 207 212
-117.505932 127.986896 1089.018059 63 47 81
-226.426816 191.866851 941.755676 55 43 74
-226.426816 191.866851 941.755676 55 43 74
-113.456547 -157.194602 1108.266544 101 87 140
-113.599765 -149.565697 1106.884670 104 86 138
-223.209023 217.263603 933.210564 91 75 111
-109.379423 -182.244444 1114.557362 104 81 112
-97.854483 86.633223 1101.055431 63 53 110
-111.263537 -154.419136 1107.637978 48 34 80
-220.235872 188.962877 936.722374 52 40 89
-220.235872 188.962877 936.722374 52 40 89
-98.187947 230.665874 1083.885002 65 48 97
-221.021247 202.009225 933.368683 75 60 92
-92.475539 -25.458333 1111.561489 82 71 127
-92.475539 -25.458333 1111.561489 82 71 127
-98.529774 101.037574 1089.635658 75 63 112
-98.529774 101.037574 1089.635658 75 63 112
-217.790461 203.451753 932.858753 54 41 78
-104.547322 136.784804 1077.599812 112 94 145
-110.990143 146.599543 1068.306446 53 48 64
-218.044329 178.436852 934.527588 57 44 94
-220.747280 234.212899 922.363949 74 63 106
-88.202000 15.986878 1104.899788 40 31 63
-215.975404 187.872326 931.336689 57 47 94
-215.975404 187.872326 931.336689 57 47 94
-87.284344 -9.670397 1106.375313 49 39 70
-85.456699 42.994297 1102.662659 48 36 73
-83.080947 62.628829 1098.791599 88 75 130
-83.080947 62.628829 1098.791599 88 75 130
-82.798326 68.041605 1098.362637 93 82 135
-102.860117 -155.538869 1096.521473 110 95 146
-84.254766 49.175310 1097.995949 116 103 155
-220.541477 137.792826 925.453854 70 60 115
-101.908195 -153.603220 1095.729256 101 87 133
-81.418622 15.171546 1097.916794 39 32 62
-81.418622 15.171546 1097.916794 39 32 62
-79.566717 68.375504 1094.284248 40 30 62
-211.238408 154.526532 927.483559 42 39 75
-209.757233 213.631153 921.405602 166 136 182
-79.271495 -26.501882 1097.558689 85 76 128
-99.591744 145.560813 1056.515694 67 57 87
-90.136844 -135.891497 1095.206738 90 77 130
-90.393752 -132.141232 1092.262936 42 31 76
-74.368751 26.209062 1090.440273 37 30 61
-74.019241 25.868636 1090.627098 33 24 59
-74.019241 25.868636 1090.627098 33 24 59
-84.592897 -177.346671 1092.845345 29 23 58
-203.706932 222.547483 914.096737 75 58 96
-85.640490 122.170258 1057.229996 53 43 76
-195.994270 215.802169 919.945526 118 98 137
-64.277858 -54.780400 1096.151829 20 21 51
-64.277858 -54.780400 1096.151829 20 21 51
-83.662593 124.754536 1055.534935 57 43 76
-194.710612 222.339082 913.644409 79 64 108
-186.310303 185.490823 924.447823 128 109 152
-185.381353 180.266690 925.515461 89 67 116
-78.758609 124.631119 1049.773502 48 37 76
-52.423406 -115.243530 1100.682163 35 27 59
-46.560946 4.452199 1090.135956 46 35 71
-71.093392 124.360752 1041.703701 43 37 58
-25.519028 -278.481674 1119.293594 87 71 104
-65.801901 123.281443 1037.109566 56 42 79
-66.722196 109.453583 1036.822414 59 49 85
-157.404113 208.371902 929.280472 136 111 156
-35.461056 25.474766 1076.953888 31 24 46
-36.510715 17.185755 1076.370811 37 30 60
-35.145536 -46.397179 1066.866970 92 79 131
-58.439535 106.661189 1027.236271 49 40 77
-35.416427 19.705184 1059.353828 95 83 132
-57.262999 106.649590 1027.984905 49 40 77
-148.876870 163.471556 925.463295 60 45 84
-146.259856 174.237621 925.633335 78 57 95
-31.757793 18.775262 1056.803417 120 103 153
-20.023987 49.903202 1062.303448 46 37 81
-24.461721 9.960093 1061.085510 118 100 154
-24.461721 9.960093 1061.085510 118 100 154
-52.189100 109.175611 1022.866440 102 88 139
-6.706379 -199.826002 1097.061157 132 112 131
-6.706379 -199.826002 1097.061157 132 112 131
-139.929593 192.472684 922.746849 62 43 90
-17.515236 45.758232 1059.607506 47 36 77
-33.150578 -121.792567 1056.904030 89 75 122
-17.025669 23.471987 1056.392384 43 34 77
-236.194754 159.459674 822.373390 39 32 52
-41.427237 -154.109001 1045.038605 35 29 67
-14.490920 -12.417133 1057.155514 40 31 56
5.179732 -205.844235 1084.895229 91 75 107
-6.985395 28.790447 1049.433517 41 34 67
-38.804105 118.197823 1009.450436 56 44 86
6.272089 -270.658422 1086.759567 89 65 83
7.751582 -206.924939 1082.412910 88 66 97
-36.167893 101.422739 1007.275009 58 41 79
10.762867 -259.624505 1081.441212 86 72 105
10.762867 -259.624505 1081.441212 86 72 105
-0.397091 12.182471 1043.882561 50 38 70
-0.397091 12.182471 1043.882561 50 38 70
-31.911004 120.801938 1001.919556 48 38 81
15.340972 -259.004903 1076.920509 91 74 103
20.948069 -225.164890 1069.783974 143 118 136
-6.093113 -50.546032 1027.878952 39 33 76
22.384135 -238.616204 1068.291187 79 58 80
-23.695949 120.276749 992.757320 44 40 55
22.719447 -242.963886 1067.323971 135 114 135
23.090358 -247.387457 1066.935539 88 69 99
25.103247 -211.701870 1064.971828 86 74 104
26.885581 -145.035315 1058.934784 96 81 116
29.315019 -124.689507 1055.023575 83 66 91
29.602394 -238.556886 1060.028648 99 77 105
31.259805 -229.320431 1060.484505 92 77 108
33.260119 -123.769033 1052.858257 92 71 97
31.993097 -193.355811 1057.447052 72 55 77
30.039752 -259.661293 1060.356808 84 64 84
35.133731 -229.828548 1055.021572 94 76 105
4.522610 81.347829 996.283722 60 52 103
39.382887 -181.154847 1047.662926 85 70 97
39.535141 -230.109525 1051.766014 84 69 100
38.258824 -238.916183 1051.381016 89 66 97
22.705372 -50.425428 1021.095276 129 112 145
1.843417 90.819645 988.937283 63 59 95
20.557594 64.563107 1006.099892 43 39 88
42.044657 -228.033257 1049.060440 91 68 81
-6.061884 186.831200 969.582272 53 37 89
46.216351 -90.045869 1037.597370 104 75 100
-4.771490 105.083299 973.612595 109 91 140
17.853494 51.480436 997.523689 126 107 153
-1.525158 173.188186 966.492271 48 36 82
19.804749 57.663041 994.322777 44 31 65
21.159054 -4.877510 1000.113392 23 20 36
50.534207 -163.112068 1038.837337 103 79 102
-0.948555 104.202926 970.755768 52 42 67
-0.948555 104.202926 970.755768 52 42 67
49.502644 -261.191368 1042.262650 90 69 84
0.912647 101.380002 968.325138 42 31 60
53.074634 -121.426034 1031.782341 92 72 90
53.074634 -121.426034 1031.782341 92 72 90
51.927400 -181.654680 1035.401535 134 116 132
54.753339 -98.894393 1030.284309 73 56 70
15.084676 -8.742196 985.649490 68 57 108
57.998198 -96.481305 1027.504444 79 64 87
54.094595 -213.397717 1033.717918 85 73 100
55.855101 -206.496024 1032.809162 97 75 95
5.990710 185.942745 957.106686 58 43 77
29.792157 47.568062 985.689259 63 51 82
57.767212 -215.038300 1030.369473 83 68 93
9.618457 170.347047 954.780865 43 32 65
10.210981 114.972317 959.847260 66 53 90
10.210981 114.972317 959.847260 66 53 90
10.737874 102.578390 959.412766 52 41 75
66.502655 -130.793333 1019.458771 144 122 136
13.792668 92.850006 956.133461 108 88 139
69.037724 -94.561547 1014.425373 134 112 136
67.255080 -197.599387 1019.872379 91 72 96
67.255080 -197.599387 1019.872379 91 72 96
17.449284 98.035544 952.295017 51 45 59
17.638980 150.027013 946.414852 23 26 42
71.498901 -217.894292 1015.904140 82 68 92
71.083915 -273.332024 1019.195938 83 70 94
72.695017 -230.682635 1015.140820 135 112 125
77.496737 -99.327981 1006.742477 76 61 88
82.817292 45.243773 995.520020 54 46 72
86.441046 -237.590289 1003.020000 128 108 130
88.146502 -173.838580 998.335743 85 70 96
88.146502 -173.838580 998.335743 85 70 96
93.645287 77.413362 981.453800 137 123 146
89.412111 -168.149889 997.052097 75 64 73
86.329269 -262.307096 1001.929474 88 67 90
86.329269 -262.307096 1001.929474 88 67 90
93.339574 -5.978568 985.214138 69 56 83
97.717780 67.331272 978.885937 79 59 82
95.020556 -113.115692 989.538574 86 67 89
99.247676 77.508211 977.152634 146 131 155
101.475835 18.904032 977.927303 78 65 86
96.462631 -191.025174 990.364456 77 64 89
107.454562 158.315146 967.712975 88 65 86
107.454562 158.315146 967.712975 88 65 86
98.808694 -172.767293 986.361027 134 115 141
107.238650 127.276015 968.708706 69 50 70
98.501050 -203.791690 988.225460 122 106 114
105.318153 49.298704 972.436714 141 118 129
103.691244 -25.269866 975.378704 57 50 74
101.475751 -193.205953 985.081863 77 68 88
109.074450 81.003028 967.611599 79 65 94
101.292300 -223.498297 985.724163 64 52 68
109.614182 123.619390 964.038944 125 111 137
112.775218 188.989496 961.100006 109 90 101
109.551275 76.939887 967.077923 97 75 99
114.839756 191.099012 959.423351 59 47 66
106.661379 -138.729370 979.236221 82 66 82
112.100935 129.610252 962.031078 126 100 115
102.230918 -274.216795 986.494827 92 71 89
111.679900 22.835869 969.523430 87 73 101
106.041241 -168.213511 979.857349 91 70 88
113.279366 89.516485 964.386940 87 64 81
113.279366 89.516485 964.386940 87 64 81
110.495734 -32.071349 970.670891 135 117 135
109.245718 -134.894693 977.474689 102 80 94
111.690855 -13.767709 968.843365 79 57 80
119.274390 193.032980 955.991173 49 40 55
116.129231 75.676250 962.747669 134 112 117
111.613631 -30.094111 967.260075 77 63 86
110.125411 -202.934027 978.220081 70 57 72
118.779504 175.240350 953.552055 120 98 123
112.975955 -42.170554 965.547276 119 100 115
119.665432 98.669964 958.881760 58 49 71
120.179832 72.501504 960.524178 51 43 57
123.952329 185.051656 953.313637 43 33 53
124.173379 197.546875 950.444794 121 107 131
120.846355 56.785166 956.488991 84 73 99
124.123240 142.825639 952.052402 150 127 131
120.468724 21.881896 958.168221 132 110 127
124.025726 135.123324 951.751137 145 122 126
125.366950 146.758962 949.947166 88 67 84
123.256791 196.828055 943.600368 121 105 126
124.746335 196.956086 944.231415 121 105 126
122.565806 38.074493 954.892254 125 113 132
125.676799 135.893917 949.103928 83 61 79
120.163250 -104.900682 963.133907 56 50 72
126.950061 137.668860 949.073315 83 64 79
124.776125 -12.345120 955.717278 94 78 96
127.976930 133.276343 945.775795 160 132 145
131.275034 185.102856 942.317772 51 38 59
127.954710 44.570431 950.574684 89 69 90
129.924726 138.028908 943.620014 79 65 91
126.671433 -138.375664 956.575108 68 59 81
126.671433 -138.375664 956.575108 68 59 81
131.857014 64.724416 943.233013 137 118 137
128.034389 -172.059512 957.306957 97 77 83
134.643257 97.824389 940.753651 58 47 67
138.729298 197.936726 933.206940 94 78 108
138.729298 197.936726 933.206940 94 78 108
136.151624 53.561568 940.339184 86 65 89
140.058625 183.849096 931.844902 53 42 62
130.255497 -199.106240 952.052593 84 64 76
143.228495 153.798282 932.372952 65 49 63
138.885236 66.583830 936.049366 131 117 141
138.138390 -55.791128 944.395161 79 59 80
138.138390 -55.791128 944.395161 79 59 80
143.285286 125.785398 932.511139 131 118 142
141.262674 77.166945 934.212399 95 77 101
145.855963 190.556622 926.641464 91 65 80
146.199071 169.148183 926.575851 83 66 89
146.199071 169.148183 926.575851 83 66 89
141.786134 28.939754 934.102631 134 120 144
141.786134 28.939754 934.102631 134 120 144
140.327132 -204.551840 944.478035 73 54 68
147.039986 59.330368 928.331947 81 67 95
142.525280 -168.986642 939.368153 138 123 145
142.142403 -241.770077 943.620586 73 52 66
150.123644 37.460506 927.875233 79 63 75
149.469507 -15.892135 931.321430 127 111 133
143.788159 -205.853629 941.756153 85 61 70
143.006039 -248.539758 942.812824 85 69 90
143.357289 -276.226377 944.815254 61 42 57
144.510460 -175.541723 937.943649 118 102 124
154.952216 127.715158 921.356583 86 70 89
152.037787 39.162537 924.796486 133 115 136
150.081170 -107.346189 932.469368 65 48 71
151.472664 -80.277526 931.244183 65 50 77
149.454534 -172.435355 934.156895 71 53 70
154.703391 -5.393659 923.828030 114 96 112
149.665952 211.924219 903.304672 83 62 75
155.562866 -7.109226 923.187256 62 45 61
157.283580 68.613958 918.420124 50 43 63
156.182861 -46.327749 925.000381 138 119 137
162.018621 191.732717 909.117794 144 125 147
153.125191 -243.929100 931.019688 75 53 67
153.125191 -243.929100 931.019688 75 53 67
157.980072 -173.582339 925.808144 64 50 62
160.750926 -157.177246 922.710133 83 70 95
168.089294 81.496531 907.091427 76 68 97
170.374668 68.929821 908.295250 63 48 68
168.333387 -13.771829 910.596752 76 66 91
165.008175 -150.000381 916.654682 86 64 95
163.072371 -244.797659 921.699619 70 45 60
170.717692 18.230483 906.703568 71 56 79
176.270604 70.650595 902.144909 132 113 127
177.535272 130.191743 898.449516 87 73 97
176.739550 70.695269 902.306366 132 113 127
169.906008 -78.428429 908.456516 129 102 122
167.428148 -279.911208 918.519497 95 75 98
177.504766 -16.443576 900.723743 76 67 93
174.513984 -149.540222 908.473015 91 68 92
180.905080 39.535642 897.530842 99 80 104
177.052271 -106.829298 904.210567 129 110 131
182.494867 -46.770370 898.707390 64 50 71
176.897192 -245.377898 908.110237 74 61 69
183.622074 -40.715161 896.196556 86 66 85
192.685056 177.729380 879.857635 148 128 148
183.608079 -211.055636 902.116013 67 47 67
182.361698 -214.004230 901.245785 125 106 129
181.955659 -217.357135 900.064659 101 75 99
190.722287 35.405132 887.067795 65 52 72
183.030200 -247.248101 902.276516 74 57 73
183.030200 -247.248101 902.276516 74 57 73
195.319796 146.960795 879.598618 87 78 97
191.868687 18.491840 886.454678 142 123 139
192.182755 -16.383857 887.013340 65 54 69
198.733473 185.294127 876.312160 62 54 62
205.480337 180.405033 879.835987 122 108 131
194.870877 30.464447 881.674862 100 84 109
205.871367 139.510262 869.712830 79 58 83
205.871367 139.510262 869.712830 79 58 83
203.278351 124.003971 869.259930 131 118 139
206.453156 145.518255 868.241978 63 50 67
206.453156 145.518255 868.241978 63 50 67
200.016594 211.183643 852.898502 112 101 115
207.854962 12.318370 868.063068 98 79 99
219.198966 136.048317 854.330826 80 71 103
219.198966 136.048317 854.330826 80 71 103
220.722198 194.852018 846.444035 145 129 133
215.264940 214.657187 837.993431 44 26 18
214.591122 226.864743 835.477924 39 22 20
229.958177 197.430646 832.838058 147 128 138
228.849435 229.727292 823.253632 44 14 16
237.681627 228.040719 816.032791 109 97 110
153.932917 -158.494031 794.022417 175 169 169
162.504828 -150.704098 786.930704 154 126 125
-360.531139 155.330420 1466.957664 95 74 82
-357.935786 151.905692 1463.946533 155 123 137
-357.935786 151.905692 1463.946533 155 123 137
-357.226944 122.658288 1467.495441 94 71 84
-357.226944 122.658288 1467.495441 94 71 84
-360.656810 -145.444751 1501.053429 74 59 74
-356.827402 101.452172 1468.061829 90 71 78
-354.744029 195.414615 1455.324554 143 119 128
-353.576398 6.729313 1475.626373 89 62 68
-353.268456 -0.414459 1476.155567 92 68 71
-355.501699 -167.743659 1495.807266 130 114 137
-355.501699 -167.743659 1495.807266 130 114 137
-349.809957 -22.360142 1474.206161 69 54 67
-348.645234 -146.378052 1484.547997 85 70 94
-342.833924 153.473961 1447.526360 103 78 90
-412.513781 264.400506 1290.159607 100 113 104
-339.791918 76.973903 1454.415035 92 72 78
-341.584730 248.361635 1425.070953 107 99 106
-343.290043 -119.574618 1474.110317 137 117 134
-342.847395 -119.699526 1474.696732 137 117 134
-342.072558 -89.548582 1469.798946 82 53 63
-342.284870 -131.400716 1475.333405 146 125 145
-340.306473 -145.643008 1475.203514 70 59 70
-338.678813 -165.003967 1476.438332 88 77 93
-337.080979 -135.952413 1471.788692 57 43 56
-334.596872 40.458703 1448.758698 92 69 83
-335.322475 14.354780 1450.814152 91 71 84
-336.363721 -142.794681 1470.376396 122 102 124
-335.402584 -56.715941 1457.705307 135 113 126
-334.796858 -147.474575 1470.359707 52 37 46
-329.872942 74.720341 1442.504120 89 67 81
-329.872942 74.720341 1442.504120 89 67 81
-330.900502 31.639874 1446.011925 78 58 61
-330.698991 17.212090 1448.219776 73 54 65
-330.698991 17.212090 1448.219776 73 54 65
-330.184388 16.909987 1443.454361 65 48 62
-330.877304 -137.347066 1461.458015 70 55 77
-324.422431 240.604854 1416.830921 80 61 68
-326.282716 128.744853 1428.125668 251 181 164
-325.965786 110.338855 1430.676460 255 190 172
-324.850702 103.894877 1427.512550 122 87 101
-324.773788 4.308615 1440.637779 50 38 49
-323.952246 9.157255 1440.794468 59 38 43
-321.130371 239.635777 1413.365841 72 62 70
-320.147634 2.948438 1435.303879 81 59 80
-323.424649 264.113569 1391.822910 38 38 44
-318.267655 102.068388 1422.118855 115 96 112
-313.729596 146.798217 1416.630268 63 48 52
-313.570023 129.489326 1417.937565 66 48 59
-317.502236 -113.942790 1441.496944 85 59 74
-315.255809 -24.551862 1430.478764 137 116 136
-309.643865 191.796649 1405.485058 63 50 56
