ply
format ascii 1.0
element vertex 1028
property float x
property float y
property float z
property uchar blue
property uchar green
property uchar red
end_header
-330.376172 407.613850 1819.416046 86 118 124
-296.678233 13.970087 2018.648720 76 67 34
-297.026658 -14.833629 2034.122849 187 174 120
-335.229182 416.488028 1813.269424 50 75 90
-298.524833 -14.696230 2028.678703 169 154 87
-220.039105 -301.970267 2140.525436 37 34 26
-301.569271 -18.820316 2025.101662 144 136 78
-375.228381 560.329723 1743.781281 131 134 138
-374.788237 554.025793 1746.109200 48 49 51
-325.849462 142.480028 1941.242409 160 157 111
-366.898203 570.268917 1729.587936 40 50 50
-366.898203 570.268917 1729.587936 40 50 50
-383.040190 513.198328 1768.510628 97 97 52
-265.932250 -344.842911 2165.656853 57 47 41
-343.375373 616.804934 1686.238480 67 73 86
-343.375373 616.804934 1686.238480 67 73 86
-386.113548 529.505157 1758.763885 135 130 45
-379.583740 556.855869 1738.604546 31 32 34
-379.583740 556.855869 1738.604546 31 32 34
-343.625855 619.101000 1682.912636 142 149 154
-350.405765 619.397831 1685.145760 55 63 77
-421.566391 502.984047 1790.762520 39 53 61
-373.512506 567.414618 1726.692200 40 45 43
-344.656444 92.235261 1967.447472 43 39 20
-395.955205 537.390900 1755.594635 156 150 97
-343.968177 722.639990 1623.807716 169 172 178
-343.968177 722.639990 1623.807716 169 172 178
-179.150319 100.030792 1830.718422 14 13 10
-336.059117 132.384264 1937.735748 33 30 31
-336.059117 132.384264 1937.735748 33 30 31
-342.555165 102.092373 1956.935692 32 27 22
-347.166443 43.079597 1989.583588 56 47 30
-349.861193 -118.284178 2078.081512 116 108 95
-423.210573 514.083624 1778.359795 31 37 34
-338.969612 146.962893 1924.732399 116 127 98
-373.839641 848.029232 1566.512966 104 121 114
-359.565234 604.693699 1688.148689 153 154 157
-346.259165 114.321387 1942.563438 38 32 29
-348.847485 90.183556 1956.799698 39 35 34
-346.092892 102.790630 1948.125076 36 32 27
-374.436831 841.481495 1568.255806 163 168 151
-304.605985 -244.101906 2108.687401 19 17 16
-351.409268 110.692871 1941.902161 160 154 97
-363.669705 590.428019 1692.099380 57 61 52
-363.669705 590.428019 1692.099380 57 61 52
-350.853395 729.576111 1609.674263 172 172 171
-365.628338 70.265836 1969.675064 36 30 30
-352.228236 310.097957 1831.522369 150 149 95
-350.669289 46.291474 1970.835304 124 120 82
-218.592834 9.628640 1907.692528 16 14 14
-371.595263 571.767569 1702.462578 122 122 80
-344.182658 139.962971 1914.555359 63 68 56
-365.221143 239.426136 1874.178696 70 70 67
-393.931866 545.744276 1728.731918 146 139 82
-393.931866 545.744276 1728.731918 146 139 82
-355.559683 -160.317361 2080.486679 149 139 106
-365.462565 672.360134 1642.556381 177 180 179
-364.825749 269.645715 1855.261803 162 156 89
-373.601627 564.578009 1703.319168 52 56 57
-352.263451 -39.588368 2009.951973 106 104 67
-352.263451 -39.588368 2009.951973 106 104 67
-369.209790 574.749088 1693.295860 59 65 71
-359.362340 591.409016 1678.137207 163 170 176
-359.356308 706.246996 1617.398071 190 190 186
-361.155176 594.823694 1675.823975 73 77 84
-369.939876 -35.130838 2012.822723 37 32 32
-367.633915 -104.534054 2046.258163 86 76 61
-359.972167 618.479156 1660.220718 189 189 190
-372.404933 298.563886 1834.402847 172 165 106
-370.532227 574.007940 1688.453674 178 178 180
-383.243275 129.009306 1929.530525 204 192 141
-368.601108 366.952038 1793.189049 44 42 42
-369.481778 -107.714272 2042.279816 25 21 15
-365.832901 590.055656 1674.326134 90 100 112
-365.636206 -190.057123 2082.377243 187 182 113
-375.530982 320.994210 1820.109367 152 152 105
-397.774029 519.302988 1727.496719 156 158 93
-372.401524 -135.577142 2052.291298 37 31 28
-380.396962 403.397274 1774.973869 67 111 140
-372.043014 -181.081748 2071.579361 20 17 16
-291.583204 -390.191197 2120.332718 64 57 26
-386.413145 831.430054 1547.393513 181 183 165
-376.380706 521.443224 1698.297310 84 89 34
-384.639239 62.693489 1938.859749 196 184 123
-394.455647 521.356249 1708.976555 62 62 40
-380.769610 -168.562293 2052.234840 56 52 27
-379.762602 -89.925045 2010.004425 119 109 67
-377.556944 -196.799183 2061.202049 66 56 28
-376.906395 -206.532097 2059.954643 127 118 72
-382.605505 -170.364571 2043.178940 101 89 41
-376.099706 404.243183 1747.107697 41 70 92
-386.941934 97.480249 1905.378723 23 23 26
-384.005427 236.096287 1832.866669 53 68 79
-389.654827 511.040306 1696.233749 49 47 18
-369.984341 366.070414 1756.165314 43 42 41
-430.689001 -319.715929 2140.146828 194 182 122
-391.604972 237.133646 1832.896042 27 28 30
-366.531205 -361.852241 2117.468071 27 22 18
-350.033331 538.949060 1653.343964 192 187 118
-369.208527 389.169192 1738.990593 52 73 90
-360.486412 518.527985 1668.465424 173 170 88
-388.349319 -118.022060 2005.530548 183 177 102
-391.526246 -88.497394 1991.640091 138 135 64
-392.813134 502.762938 1695.392990 154 156 96
-392.946076 -220.165920 2054.235268 116 105 70
-422.695971 -349.043679 2136.717606 161 145 68
-397.570133 79.782701 1906.143379 53 51 44
-392.936039 -134.784997 2009.796715 153 139 67
-403.970814 304.518652 1795.753860 21 19 16
-366.157460 352.006960 1745.482635 47 47 53
-413.603687 275.886941 1812.434959 179 177 122
-396.773744 -112.206185 1994.075203 121 107 61
-398.770642 -30.927646 1953.227425 187 180 116
-402.852917 195.607257 1842.794609 52 50 48
-402.852917 195.607257 1842.794609 52 50 48
-368.809271 391.013861 1723.441315 131 163 144
-414.501810 243.189764 1825.859642 169 170 117
-410.263109 311.381555 1788.827515 14 13 10
-384.802794 -408.346319 2127.213287 253 254 250
-360.812879 501.710367 1661.008072 85 88 23
-402.839136 -41.299006 1953.895760 47 41 34
-418.526411 287.124729 1801.679993 179 183 129
-363.276291 501.805830 1660.064507 89 94 27
-415.863132 240.370607 1822.014236 28 26 24
-411.024570 307.203865 1785.726929 180 172 119
-344.316697 516.785383 1638.709641 181 179 92
-344.316697 516.785383 1638.709641 181 179 92
-356.949472 508.533812 1650.245285 178 176 114
-420.648003 295.026469 1795.295334 190 191 143
-412.158775 65.885359 1901.229858 191 184 128
-397.503996 -139.207733 1990.661621 14 11 9
-393.218184 468.977880 1690.054893 40 51 35
-368.544078 363.140082 1725.077629 63 92 100
-346.876764 -446.692371 2100.807762 255 255 255
-366.663742 383.085823 1709.260941 96 145 162
-366.663742 383.085823 1709.260941 96 145 162
-417.590475 65.056354 1894.669342 78 65 53
-408.347559 464.752626 1693.271255 86 117 121
-305.455279 52.551246 1820.782661 24 20 17
-420.570135 -419.506025 2120.410347 170 158 100
-376.909518 -452.551174 2107.664299 253 253 254
-420.097160 112.506759 1861.776733 14 12 12
-427.843809 120.119584 1861.583710 14 12 12
-287.797141 26.093593 1814.987373 54 47 37
-352.542090 320.474386 1713.828087 21 22 22
-323.869872 40.624431 1828.985214 90 82 57
-393.999171 -277.137399 2025.469017 251 250 250
-413.475180 -169.090772 1986.536598 148 140 77
-310.412574 40.940967 1818.191719 162 149 113
-421.800900 -427.623892 2113.984871 174 161 89
-362.908721 481.832409 1641.028404 148 143 71
-412.860394 -97.768450 1950.159073 67 59 43
-372.735834 -280.537486 2009.374046 208 204 141
-306.476307 29.275176 1816.831017 37 33 29
-361.936498 315.961647 1716.589165 107 95 48
-417.184782 -152.784038 1975.498581 109 106 56
-417.184782 -152.784038 1975.498581 109 106 56
-418.494844 91.998637 1855.019951 183 172 119
-418.494844 91.998637 1855.019951 183 172 119
-360.689950 342.963648 1697.331619 108 156 158
-394.783854 -274.636555 2012.020493 254 254 251
-394.931459 -259.799194 2003.033829 95 91 38
-319.353747 14.864093 1822.713852 21 19 15
-394.030142 -271.859288 2004.471207 249 249 236
-228.124738 -46.914336 1788.516235 19 15 14
-366.291595 479.549122 1629.650688 149 145 73
-370.065260 -45.660236 1875.442696 61 51 37
-370.065260 -45.660236 1875.442696 61 51 37
-389.914775 -266.883636 1991.612816 255 255 255
-317.382646 0.017937 1818.503380 93 84 60
-324.754834 536.819458 1567.474556 166 163 113
-324.754834 536.819458 1567.474556 166 163 113
-357.193732 352.133322 1674.109840 180 184 174
-315.664673 -11.929815 1814.417076 134 126 85
-374.357986 -34.626180 1862.085342 167 153 101
-375.595498 458.157492 1631.878281 143 148 71
-355.444145 342.676210 1668.492126 94 104 97
-369.642615 376.715899 1654.995918 147 175 176
-324.102497 492.349100 1570.741940 180 176 106
-442.729902 -185.727894 1960.185051 174 169 94
-338.998365 469.541264 1583.865643 174 170 88
-337.714076 471.787930 1581.567669 124 120 38
-452.605200 -151.102996 1940.087891 155 147 85
-397.552085 431.683397 1636.816025 105 144 144
-349.752378 338.024163 1640.335083 128 168 165
-402.270031 413.141441 1638.643456 120 129 100
-449.877357 -101.261806 1897.938919 121 115 71
-441.102314 -183.758807 1928.608894 149 143 67
-350.140524 449.321270 1579.938507 154 141 79
-456.279802 -148.951113 1914.720535 184 179 105
-333.896208 455.906963 1558.558846 175 175 92
-434.200954 -94.332910 1866.332817 95 91 60
-329.205394 453.651619 1551.453876 124 124 44
-338.090634 288.807607 1627.615356 70 72 75
-18.709852 103.075504 1480.376434 77 105 117
-341.080379 326.128864 1610.727310 106 132 98
-435.622931 -122.453487 1870.134163 88 81 58
-473.428488 -121.779275 1883.724403 44 43 30
-339.490151 314.486384 1602.626801 188 193 166
-341.672778 326.612878 1598.735809 60 89 107
-341.672778 326.612878 1598.735809 60 89 107
-326.745105 442.553186 1537.941170 172 172 86
-383.805466 403.549957 1591.621017 102 128 114
-468.874216 -103.294504 1862.909698 89 84 65
-341.079044 321.193790 1588.468075 58 77 84
-476.529741 -133.970594 1875.668144 126 117 67
-468.387604 -101.181602 1854.148102 162 150 96
-336.389637 308.348703 1586.653996 101 120 97
-385.443068 386.468053 1586.150932 44 52 53
-462.682772 -146.563768 1862.182426 60 55 28
-471.233463 -99.857253 1848.520851 113 108 58
-339.125109 315.929222 1579.762840 58 77 90
-439.435482 -82.364243 1815.005493 255 255 255
-339.926314 422.915745 1533.523560 136 141 58
-304.859304 448.152256 1493.138504 194 186 106
-385.140920 382.495022 1577.251816 39 46 50
-469.056702 -89.356190 1826.964378 76 72 36
-469.056702 -89.356190 1826.964378 76 72 36
-332.973838 300.503778 1568.946934 59 96 113
-476.552677 -96.716058 1826.559639 87 81 34
-476.552677 -96.716058 1826.559639 87 81 34
-469.185400 -149.455094 1836.311340 255 255 255
-377.014089 369.387436 1557.564163 34 46 50
-377.014089 369.387436 1557.564163 34 46 50
-324.916339 257.095623 1564.302921 120 157 158
-337.269545 373.570228 1522.844028 43 45 19
-319.442201 246.881127 1560.436153 88 90 91
-435.625696 -64.402962 1768.487930 92 79 55
-372.383451 365.219069 1547.697353 44 57 61
-483.982897 -55.072331 1795.897865 155 138 77
-454.812098 -79.798281 1783.964348 143 130 70
-480.937195 -91.435915 1807.175446 130 122 68
-317.683864 245.924115 1553.545666 255 248 242
-307.322168 433.994722 1467.389393 128 132 90
-308.644533 436.076546 1453.592777 173 168 153
-477.105713 -80.579019 1776.868439 122 113 68
-314.103842 398.557758 1469.705582 151 142 63
-306.358576 460.331583 1435.972500 201 197 192
-336.048269 387.378383 1483.805370 186 180 127
-361.259723 355.634999 1512.253189 86 121 124
-333.608198 390.760708 1476.791763 173 171 137
-314.748931 259.124064 1512.928772 255 244 240
-296.482539 443.253088 1425.393772 157 156 133
-300.548601 471.736908 1415.079403 199 195 175
-364.212275 342.241311 1506.676006 71 92 102
-309.197450 415.823841 1435.303402 134 138 96
-478.222418 -62.972212 1741.219711 254 254 253
-478.016853 -62.750089 1740.959167 254 254 253
-356.233644 344.879389 1495.934677 104 130 119
-296.971869 486.926126 1394.912720 171 171 161
-295.088792 479.040766 1395.974541 178 179 159
-296.368647 478.370476 1397.147846 179 179 154
-313.460684 408.850479 1434.458828 130 128 89
-340.180993 377.589202 1462.886047 144 145 125
-301.885080 504.632521 1386.055470 163 165 145
-337.893367 373.346567 1462.051582 135 136 115
-296.303248 474.091816 1393.271065 102 102 80
-331.122541 373.060012 1455.409336 78 82 64
-296.312594 478.223467 1385.922337 254 251 250
-297.469807 521.426105 1368.424416 73 75 62
-430.796623 385.609484 1516.657543 74 97 95
-329.212666 380.290675 1440.816402 115 115 78
-296.767735 509.737968 1368.294907 74 73 62
-353.990197 313.029647 1479.483032 64 94 100
-326.117873 363.997197 1438.157082 131 123 92
-321.862793 347.239780 1440.082264 155 161 99
-289.250731 549.998999 1338.243484 248 236 229
-291.658950 567.311382 1332.053661 245 233 226
-340.015125 318.964887 1436.316013 69 75 66
-337.262559 286.283851 1441.367054 143 153 148
-337.262559 286.283851 1441.367054 143 153 148
-340.676618 297.866774 1438.890553 81 89 86
-340.492296 299.161792 1429.793739 254 240 234
-349.377966 283.737493 1433.677959 91 98 93
-349.377966 283.737493 1433.677959 91 98 93
-23.272842 510.093117 1870.920563 249 231 224
-25.444892 511.050510 1870.631599 249 231 224
-66.328371 499.227524 1876.454353 37 39 41
-46.980125 522.012758 1855.058098 37 43 42
-45.796904 815.380573 1655.615234 179 177 179
-47.166172 834.994316 1642.594528 113 117 123
-51.709408 785.274076 1664.652252 127 131 133
-59.098953 827.651215 1632.810593 127 129 137
-171.047711 703.194189 1734.689140 254 251 251
-67.137760 560.123253 1807.598686 140 152 160
-56.181914 516.091871 1832.600594 48 48 31
-57.972920 706.219196 1703.499794 29 30 36
-38.911268 576.157522 1780.646896 253 242 240
-59.878212 689.923096 1710.896111 114 120 131
-65.220404 709.425640 1699.488449 186 183 184
-92.221153 525.257540 1815.376091 143 138 85
-107.678211 560.844612 1763.488960 170 170 169
-111.227596 592.645025 1741.373253 136 137 138
-118.953013 565.837860 1755.005836 91 95 57
-117.395759 569.572401 1751.529121 166 164 160
-158.352137 563.390303 1744.390106 98 94 36
-158.352137 563.390303 1744.390106 98 94 36
-266.859984 282.414532 1956.320000 105 97 71
-106.065524 356.935811 1847.532082 129 148 137
-265.050650 279.705834 1950.880051 254 250 246
-290.434217 501.690388 1816.509438 41 54 67
-223.705196 184.755564 1956.536865 85 83 56
-107.038522 164.932418 1891.185951 254 253 249
-353.275800 545.132399 1757.317352 63 65 46
-392.418599 502.834511 1796.222878 26 34 43
-362.375712 865.480995 1572.736549 84 90 76
-304.711580 -85.131991 2092.910194 88 77 39
-291.299582 80.589348 1991.881752 53 46 35
-373.421359 565.661955 1744.554329 147 151 155
-408.299065 510.551596 1785.443497 111 131 125
-289.995742 167.143977 1927.201271 131 125 83
-339.604330 723.965025 1629.205704 71 78 87
-339.604330 723.965025 1629.205704 71 78 87
-299.874473 3.925757 2023.238945 48 42 31
-381.279969 557.787943 1738.803482 37 38 40
-391.763783 543.548727 1749.595451 105 102 59
-345.922208 618.034601 1686.611938 66 74 86
-418.813372 513.114405 1775.363541 38 44 45
-354.442859 700.512695 1642.616272 186 184 181
-300.465560 166.026616 1922.770500 146 137 88
-346.264362 620.241308 1683.390808 134 140 146
-377.016425 859.175301 1560.376167 167 172 138
-339.937639 382.425141 1814.385796 46 47 50
-255.395579 -245.662236 2134.372330 254 254 251
-297.065187 -175.340915 2111.664009 74 69 50
-326.182771 158.977342 1934.154129 165 167 129
-378.385949 846.998596 1565.266705 98 117 109
-352.682924 620.015097 1682.064629 64 72 87
-318.077087 139.366460 1934.406471 119 118 97
-315.204096 344.867182 1816.164398 131 129 90
-337.357926 180.796170 1917.297745 15 13 12
-352.225304 721.033239 1620.057106 97 104 109
-352.225304 721.033239 1620.057106 97 104 109
-375.599909 576.087666 1710.203934 56 58 43
-346.575689 75.539124 1978.159523 166 163 118
-360.284925 596.248245 1691.719627 153 154 156
-382.686114 847.662163 1560.060024 79 103 100
-372.937393 572.104216 1709.618568 66 67 49
-407.906818 534.278965 1745.019150 155 157 114
-335.706592 132.880652 1937.263489 27 25 27
-365.490460 591.322374 1692.392921 58 64 53
-344.100785 116.545665 1947.942543 32 27 26
-357.388663 716.506720 1618.620682 172 173 171
-355.491757 599.142599 1682.939911 163 166 163
-374.907446 571.326065 1706.169128 67 67 41
-341.222143 265.139174 1862.302589 139 140 107
-341.222143 265.139174 1862.302589 139 140 107
-364.979982 603.096056 1683.903503 170 168 163
-354.457140 727.896404 1608.524513 73 79 64
-392.523360 551.517010 1722.428131 157 152 102
-345.083523 153.204846 1923.820305 122 129 96
-353.677607 717.082787 1613.716888 97 104 85
-274.257207 -336.797738 2164.702797 54 46 40
-367.339110 676.800489 1640.563393 185 186 185
-370.127988 576.099014 1697.182846 154 150 124
-363.786221 591.227102 1685.973358 171 171 168
-350.365901 17.400070 1998.082924 144 134 85
-392.183232 548.292589 1720.488930 39 38 21
-374.510813 565.007162 1703.499222 51 54 53
-366.967511 671.186256 1637.061882 186 186 179
-361.416698 594.730139 1676.030731 76 81 90
-393.124723 550.011444 1713.905144 93 95 91
-369.823098 248.551822 1867.988396 133 139 103
-289.521480 -381.267357 2178.393936 255 255 255
-378.957152 561.767101 1696.612167 175 177 176
-378.957152 561.767101 1696.612167 175 177 176
-397.559381 527.570963 1722.973061 153 148 94
-366.095185 590.123034 1674.428558 74 83 94
-375.476623 259.959865 1859.179688 121 126 94
-301.826978 144.592273 1889.862251 74 69 49
-386.507368 555.747223 1700.207329 166 167 164
-386.507368 555.747223 1700.207329 166 167 164
-375.098181 306.448865 1829.503441 154 159 116
-361.826873 646.438456 1635.124207 162 164 160
-335.065603 196.458828 1868.471146 11 8 8
-381.742907 255.851912 1855.981064 46 42 42
-392.238355 524.957895 1712.749100 54 58 54
-370.807934 553.682423 1684.169579 194 192 172
-194.019973 363.394976 1705.292511 52 67 44
-194.019973 363.394976 1705.292511 52 67 44
-425.752020 472.583914 1747.406769 55 88 104
-393.997908 516.807795 1708.784103 148 142 92
-371.750879 839.924145 1524.858093 190 189 181
-171.326864 -19.149195 1898.828506 30 32 41
-388.242221 91.011190 1933.366776 129 115 79
-425.298595 464.291143 1746.191025 41 56 71
-391.450381 514.807034 1704.143333 52 49 14
-381.823039 -127.827978 2043.799210 179 162 110
-381.823039 -127.827978 2043.799210 179 162 110
-388.442564 518.883514 1699.526215 144 140 68
-359.097147 811.830521 1526.554775 206 203 198
-380.050445 413.137960 1747.197914 95 130 136
-379.215050 -179.679239 2060.423279 203 192 126
-379.388428 -78.891009 2004.231071 123 109 64
-346.678853 -320.241475 2116.198158 81 82 35
-380.156660 -230.395985 2082.997513 132 129 86
-420.325661 462.232208 1730.828285 62 90 106
-393.022537 262.318373 1822.290611 27 30 38
-291.360235 -400.492811 2125.526047 82 72 38
-313.025928 -353.545785 2110.412979 15 13 12
-385.472107 97.193426 1904.797554 23 22 29
-348.713946 -323.399639 2109.931755 94 91 44
-378.726077 -186.638784 2050.539017 40 31 19
-366.986060 360.150290 1756.979752 46 47 46
-366.986060 360.150290 1756.979752 46 47 46
-402.302122 264.220643 1820.398331 184 170 110
-381.301832 -160.401261 2033.902740 39 32 26
-364.973426 348.453021 1759.043884 63 110 156
-391.064286 -56.051564 1981.690979 198 181 124
-378.795958 -209.041429 2056.389999 36 28 21
-410.723829 287.276220 1809.911728 30 26 29
-367.974496 313.184905 1775.780487 41 64 84
-367.098284 324.744391 1769.307709 44 72 112
-406.665564 301.843166 1797.403336 157 151 104
-349.132633 -297.237062 2084.540558 167 162 95
-424.683523 450.195074 1726.613045 96 126 137
-413.015366 275.676703 1812.298775 178 176 121
-370.814538 -360.756683 2125.583458 114 105 72
-395.387387 -22.369015 1959.695053 201 181 123
-411.833954 290.658140 1799.808502 19 16 12
-420.562077 231.924510 1832.181549 175 162 97
-370.639610 -378.957248 2125.312424 41 33 24
-411.788082 273.019791 1800.736237 28 25 19
-415.253639 276.290083 1799.945259 28 25 19
-387.112069 -200.055838 2032.586098 62 61 42
-411.893606 245.367932 1813.564682 42 39 31
-366.258621 386.528230 1718.296051 93 149 159
-394.176483 -241.063404 2053.776169 196 183 126
-419.219875 287.549496 1792.499161 35 31 26
-419.037914 226.892161 1821.916771 21 20 15
-419.037914 226.892161 1821.916771 21 20 15
-317.952108 786.932898 1487.478542 119 132 155
-416.041374 278.141356 1793.573761 177 167 115
-399.437070 -397.608376 2132.268143 255 255 255
-352.167130 503.881884 1646.068001 177 178 106
-374.558616 -374.867892 2105.540657 155 143 96
-399.118757 76.862055 1884.524155 190 181 130
-399.118757 76.862055 1884.524155 190 181 130
-344.583321 -373.290277 2086.470985 166 146 93
-394.047189 -143.629444 1991.329002 12 9 10
-364.542770 381.603885 1709.048462 95 146 164
-339.707565 524.240303 1624.313354 166 169 84
-392.458725 -171.276915 2002.916145 191 184 111
-367.059708 385.673666 1703.235626 61 98 116
-410.679579 -67.618310 1952.921677 25 25 17
-395.753241 -158.436263 1992.032623 42 36 23
-272.717714 543.466473 1577.582741 201 197 152
-394.326377 -127.895474 1973.025131 13 11 10
-368.209291 393.804836 1695.893669 105 157 176
-342.368460 513.621807 1623.195839 195 192 134
-341.059208 517.948198 1620.336342 117 120 54
-332.728291 -424.787855 2090.230179 160 145 99
-338.248348 519.364834 1615.597153 185 184 116
-125.227535 47.990438 1753.326416 64 55 39
-417.021656 -400.993729 2115.891075 77 67 42
-413.232040 83.219224 1867.731094 190 175 113
-413.232040 83.219224 1867.731094 190 175 113
-402.510691 453.472948 1674.960518 73 105 111
-281.895280 67.057550 1810.060501 125 115 83
-281.895280 67.057550 1810.060501 125 115 83
-328.163099 -143.994725 1937.045860 45 37 24
-172.426653 26.721904 1775.620842 116 105 68
-152.591622 24.738109 1766.023636 140 124 84
-330.826664 -148.429799 1936.516762 159 143 94
-130.259740 26.965389 1753.898430 140 132 100
-326.486969 37.983686 1841.017342 146 135 105
-348.803377 -472.286558 2105.722618 254 253 251
-295.610809 57.652295 1814.524078 41 35 26
-280.125642 61.198956 1805.345154 34 29 26
-322.497630 41.915864 1834.943771 32 27 23
-414.437914 89.196962 1854.426193 180 172 118
-299.948168 47.086298 1820.901299 22 19 16
-411.981583 -159.430265 1976.363373 108 108 67
-312.475753 49.647602 1824.682808 132 121 86
-297.190428 52.749825 1815.329170 137 126 98
-390.723729 -271.579266 2019.938087 57 52 21
-419.990349 -161.120701 1978.141212 188 183 117
-393.024778 -25.054243 1897.564888 52 46 45
-325.955677 32.922953 1834.299278 141 128 93
-370.472169 -24.344587 1883.380699 182 176 114
-355.085492 -82.600653 1903.535461 59 49 38
-339.198589 -121.345520 1914.753342 75 74 68
-339.198589 -121.345520 1914.753342 75 74 68
-356.890559 -77.627498 1900.593185 49 46 40
-329.301286 506.113958 1595.535088 190 188 127
-338.959002 305.171108 1697.537231 254 247 243
-340.097475 -2.185892 1848.239326 107 100 78
-292.818713 22.879262 1812.072945 151 137 115
-366.178346 -51.077676 1883.004761 53 48 41
-315.052819 19.798800 1820.529747 124 111 66
-319.817948 7.216918 1828.543663 21 18 16
-1222.979450 804.915142 1796.067810 253 254 253
-294.039917 15.465020 1809.918213 20 16 17
-366.234565 -50.159568 1875.818634 56 47 32
-333.810234 -16.898346 1842.695618 108 97 76
-325.258183 536.928368 1567.685318 165 162 108
-366.167402 -56.881946 1876.725006 188 171 111
-330.091023 -8.706138 1834.411049 94 84 62
-279.486609 -0.811042 1805.172157 102 95 73
-435.726118 -147.632861 1952.324295 134 121 74
-174.584138 -58.926082 1780.459404 254 255 253
-326.343918 -10.064260 1828.311348 28 22 18
-191.299975 -43.126509 1778.345871 254 255 253
-314.900112 -2.937033 1818.767548 94 83 63
-264.861345 -209.537816 1891.551781 72 68 39
-433.773375 -186.023402 1960.791779 205 200 135
-411.065388 -225.307846 1967.584991 172 166 91
-312.777042 669.334984 1487.367535 215 210 206
-309.928608 -9.997811 1813.556290 24 20 16
-295.728993 -23.738872 1808.948135 127 113 85
-362.202597 -364.915395 1995.425224 255 255 255
-352.991748 357.582474 1635.827065 139 169 165
-329.867601 -66.090435 1824.034882 195 187 117
-359.930229 433.863640 1598.352432 146 148 76
-246.991587 -83.587825 1782.288742 254 255 253
-437.645912 -179.775012 1923.356819 210 206 145
-328.918552 473.328066 1560.928249 204 193 140
-335.055375 -144.529843 1846.204758 255 255 255
-346.027684 310.013795 1633.787155 145 164 135
-395.008373 399.008799 1617.045975 113 120 97
-337.489915 293.248343 1612.713623 168 179 164
-340.084743 325.646758 1598.324299 55 83 97
-344.978786 334.742141 1592.417049 55 93 110
-461.928844 -104.819560 1848.572922 156 145 99
-340.436411 324.895263 1591.129398 88 133 153
-335.421610 311.753607 1589.358616 155 166 145
-383.263922 376.412725 1582.207584 108 121 96
-447.999573 -161.341655 1854.677773 254 254 253
-339.687610 422.397661 1533.661747 139 142 60
-461.985302 -99.006301 1827.532387 74 72 35
-472.130823 -108.915639 1830.608368 175 169 100
-383.866739 374.323773 1568.916416 45 63 71
-430.784178 -69.855851 1781.530762 254 254 254
-332.825065 307.658243 1557.262802 81 125 154
-332.825065 307.658243 1557.262802 81 125 154
-327.004004 266.241884 1571.643829 122 159 163
-300.710702 529.751778 1443.879986 171 169 145
-300.710702 529.751778 1443.879986 171 169 145
-428.093767 -74.326670 1768.752098 93 78 52
-330.491495 403.599310 1502.542496 145 133 61
-311.222219 412.708569 1474.809837 175 174 131
-459.766722 -74.453497 1758.713341 67 55 59
-462.948990 -69.621348 1749.130440 134 118 85
-337.299895 390.617085 1488.422203 52 55 31
-335.689998 382.244396 1483.053780 72 73 36
-339.509273 381.122422 1485.521412 184 183 129
-468.143368 -64.852881 1738.575745 111 98 83
-315.370178 413.765335 1453.764057 159 159 141
-308.821917 423.531437 1444.308949 152 152 139
-336.022758 374.587345 1475.761414 173 169 114
-304.560757 500.431871 1402.987576 215 211 210
-314.973235 410.871124 1440.999508 84 82 47
-300.251746 461.591101 1408.282948 184 183 149
-298.430991 479.137897 1398.048306 175 175 151
-295.507407 523.379850 1378.261852 108 115 81
-323.868084 401.249743 1438.825226 173 171 159
-326.423001 383.968258 1446.815300 186 181 174
-326.423001 383.968258 1446.815300 186 181 174
-295.855379 547.228622 1363.544750 131 137 96
-323.463988 400.498295 1436.866283 168 168 162
-313.937688 398.035836 1429.996681 71 71 45
-312.605047 397.350025 1419.540215 131 126 80
-326.546025 366.425061 1438.361645 149 141 105
-318.248796 336.418247 1443.670940 154 156 105
-298.047042 534.608316 1349.504280 99 98 83
-343.939638 291.412163 1443.441391 142 152 146
-345.626831 278.716087 1430.581474 96 101 100
-11.760661 809.471416 1816.955185 187 186 187
42.412257 729.015589 1734.784889 115 153 168
-51.605988 836.430168 1642.345238 118 121 126
-68.681043 498.956442 1868.847847 102 108 104
-31.488621 522.923231 1838.465691 252 240 236
-39.717725 548.851919 1821.041107 254 245 241
-54.287577 564.850140 1811.917877 255 247 246
-39.194420 514.915800 1835.946083 62 61 39
92.014408 394.244838 1880.773354 87 111 103
-64.514464 553.616238 1807.335091 130 142 152
-70.965087 524.184942 1822.480011 135 136 97
-200.285053 688.860703 1727.573776 253 246 246
-87.717313 544.347000 1806.816864 130 134 136
-71.547878 566.139507 1787.192726 56 64 72
-287.669706 555.917835 1818.899918 49 61 67
-89.032751 550.180006 1779.467392 154 156 155
-240.043640 510.859442 1818.861771 87 111 103
-144.543505 557.934999 1755.984879 155 150 95
-265.057945 279.451180 1956.824303 150 150 94
-268.024087 513.201189 1788.686752 31 33 19
-265.219498 535.144186 1772.601700 56 62 42
-264.653015 154.917419 1993.921852 255 244 240
-166.556740 244.680238 1899.108696 254 242 236
-144.103992 145.945275 1956.448174 255 242 239
-278.256440 182.283747 1952.559853 65 63 60
-336.872125 717.463017 1637.033653 182 177 172
-373.046875 567.936707 1735.700607 80 87 91
-417.208290 511.459494 1778.390121 23 29 31
-379.712129 556.811810 1738.982582 37 39 40
-375.371909 563.466787 1733.254051 66 74 66
-407.387447 536.535358 1751.327515 147 144 82
-291.964912 -91.450328 2099.806786 172 167 101
-297.416854 -86.120874 2097.104263 172 167 101
-357.281804 435.713005 1794.062805 82 115 128
-355.338669 592.240810 1696.759033 26 34 39
-285.307884 -128.151011 2111.435890 186 177 132
-353.004026 720.876741 1615.797234 186 186 186
-382.475305 846.670437 1545.899296 31 57 65
-390.441036 555.593586 1718.887138 164 162 112
-385.346508 856.403351 1536.771202 31 46 52
-365.967631 693.153667 1628.335381 194 194 194
-365.967631 693.153667 1628.335381 194 194 194
-403.099966 527.410984 1736.412239 136 135 84
-388.206196 842.772865 1544.317532 64 79 81
-362.197948 638.103104 1658.963585 194 191 190
-358.460259 715.680647 1609.075928 183 183 180
-383.696032 850.514030 1535.244751 43 59 53
-328.551340 130.491912 1946.189880 149 144 106
-396.757722 535.679722 1723.547363 151 143 89
-395.119643 526.866817 1728.162956 51 51 35
-320.387053 167.550313 1920.478439 15 13 12
-360.277438 593.951130 1676.180840 72 80 88
-340.105152 119.888508 1950.036621 108 110 82
-351.462245 -74.817604 2066.118431 162 160 116
-332.535481 130.816925 1937.571144 26 23 24
-365.486240 589.827871 1674.425697 58 70 79
-361.039710 703.694344 1604.670334 140 144 149
-389.448500 536.359406 1710.120201 174 174 174
-371.385264 563.011599 1688.737488 33 38 48
-371.385264 563.011599 1688.737488 33 38 48
-369.931388 570.261002 1683.967590 93 98 100
-424.511576 474.190807 1753.328514 45 81 98
-342.188144 142.150915 1922.022247 84 95 83
-365.665364 611.578465 1653.808594 145 146 136
-367.753506 824.271774 1529.651356 201 201 193
-386.018372 523.722506 1709.095192 31 32 30
-296.900010 -313.133430 2157.568169 46 41 33
-389.292932 517.774010 1703.989410 162 155 86
-389.292932 517.774010 1703.989410 162 155 86
-413.124323 480.503607 1731.612206 63 108 119
-413.124323 480.503607 1731.612206 63 108 119
-381.445360 425.502586 1752.817345 61 103 124
-531.010771 193.849540 1922.190666 39 34 33
-324.644470 -308.958769 2157.435799 254 253 250
-308.475590 -274.115443 2129.192734 254 254 252
-308.475590 -274.115443 2129.192734 254 254 252
-388.164330 506.604767 1694.836807 168 161 93
-366.465139 -131.385314 2050.009346 33 27 20
-409.411669 475.152397 1714.776039 86 110 112
-426.779175 457.718420 1728.788948 37 50 59
-412.902832 472.954082 1715.328598 53 87 100
-380.502915 69.078761 1933.990479 88 79 70
-385.073352 85.283518 1923.521996 80 73 62
-388.912940 505.197048 1686.293411 78 82 27
-378.975797 -138.812196 2046.964645 206 191 129
-382.080030 118.272686 1902.311134 164 167 111
-368.123674 365.431738 1755.837822 40 38 38
-347.549129 535.534143 1650.046921 96 100 34
-385.375810 97.393906 1904.600525 23 22 28
-364.332938 357.087874 1749.740601 45 45 48
-376.958513 -156.681252 2038.407898 195 178 117
-330.758405 653.395224 1571.317673 150 153 148
-365.740061 -230.159593 2074.117088 27 22 19
-411.438274 271.829343 1808.373070 18 21 14
-410.402060 293.529773 1793.148994 26 24 23
-378.295732 -152.046144 2027.746773 51 40 23
-408.473682 296.141171 1786.585236 14 13 12
-396.241903 108.403862 1885.964012 189 183 129
-372.141242 -227.726388 2064.283752 19 13 12
-415.775824 264.406037 1804.770851 41 41 37
-351.623774 508.586025 1649.503136 116 119 57
-396.626830 178.791678 1842.926979 162 151 94
-408.824158 228.929591 1817.705154 34 33 27
-366.836739 352.000070 1736.731529 47 50 56
-417.158794 225.933385 1821.794128 19 17 17
-401.445866 94.490761 1885.993767 194 187 129
-368.987107 512.171221 1644.403458 180 178 107
-399.701524 -4.173503 1936.825562 181 177 113
-391.868567 -119.058788 1995.763588 148 135 73
-394.716549 447.725773 1686.056137 55 79 94
-407.759953 236.000609 1804.822540 53 50 42
-408.830357 242.421961 1800.208282 27 28 22
-364.906931 381.876230 1708.995438 86 138 158
-409.359837 46.288440 1904.702759 145 130 83
-409.359837 46.288440 1904.702759 145 130 83
-389.333129 -230.999684 2048.405457 165 161 107
-413.899565 240.115523 1797.653580 126 119 94
-351.531911 501.765442 1634.044456 110 111 35
-417.587090 77.526170 1883.566666 128 119 96
-400.339079 -218.481231 2038.205719 186 182 127
-368.827915 -378.362846 2112.352753 25 19 17
-331.174922 -394.100785 2106.146812 143 124 72
-331.174922 -394.100785 2106.146812 143 124 72
-357.345939 -400.881958 2116.502571 31 26 23
-361.384416 338.851786 1718.022156 38 40 45
-389.631963 -77.441067 1950.533676 31 28 19
-389.481306 422.739410 1679.966736 49 75 89
-398.677611 -64.852506 1944.725990 31 28 19
-395.512700 -252.229548 2040.374947 20 17 14
-334.350038 97.345877 1830.517197 31 28 24
-415.822458 90.854734 1854.814529 179 169 109
-364.927101 384.855461 1679.380798 147 180 184
-364.191818 477.611876 1629.327011 149 139 68
-128.008640 82.471681 1760.118294 87 77 43
-128.008640 82.471681 1760.118294 87 77 43
-323.723292 -398.566031 2080.635262 170 153 95
-370.453715 -447.286034 2118.181610 45 40 28
-126.374388 72.999412 1759.706116 148 140 93
-353.168845 -87.939018 1920.383072 161 156 92
-353.168845 -87.939018 1920.383072 161 156 92
-330.673003 -149.384701 1944.617081 31 27 20
-277.182508 78.910244 1805.437088 112 107 76
-413.714027 -157.391381 1975.868225 109 107 61
-128.714108 66.815823 1761.138725 27 25 20
-361.617327 -64.593768 1908.196068 39 35 25
-283.650088 68.453836 1809.909439 120 112 84
-352.217531 -90.964156 1916.167450 38 36 26
-341.313052 -119.757044 1927.368546 36 33 31
-323.140073 42.524853 1834.829903 32 28 24
-169.592083 44.147229 1781.019402 28 25 26
-366.569543 -18.390295 1880.009270 25 25 17
-355.107617 -14.302164 1873.919487 13 12 11
-136.395109 59.538555 1759.561157 56 45 26
-97.833282 75.280786 1737.870216 93 79 66
-303.691030 50.323468 1820.469093 19 17 19
-177.190232 40.313107 1782.669067 112 111 67
-361.049199 471.454382 1618.227959 152 144 66
-365.890193 -43.987298 1890.504265 148 140 89
-359.387469 -17.144600 1872.615242 115 114 73
-98.511142 82.018280 1730.782127 254 250 245
-325.540209 537.101316 1567.696381 162 159 107
-135.308576 49.352756 1758.223152 159 142 89
-179.306352 32.297537 1781.253815 16 15 14
-326.352835 -164.721167 1934.025192 137 128 79
-341.113210 -119.609344 1914.506340 65 64 59
-349.466872 -102.960765 1908.578682 142 141 94
-295.265675 51.154464 1808.476639 46 41 32
-174.833822 13.682222 1786.787987 17 15 13
-137.661445 39.640820 1758.711815 32 28 23
-371.486688 -33.006757 1873.324966 185 170 108
-175.829852 0.724082 1788.600159 17 17 13
-424.685335 -118.185973 1935.076141 152 137 82
-167.166054 0.360091 1784.309387 132 131 102
-155.530524 27.478790 1765.624809 135 120 81
-335.821414 -11.505091 1847.611618 42 39 34
-157.231271 28.908017 1765.212631 135 120 81
-367.474675 -49.025154 1875.656509 50 43 40
-176.498866 -6.258048 1787.474632 118 111 84
-176.498866 -6.258048 1787.474632 118 111 84
-327.692461 -123.691750 1900.362968 174 165 101
-355.920219 356.709862 1659.337997 87 121 105
-133.959711 22.006619 1754.462051 31 28 22
-316.670966 -172.365022 1916.315079 54 47 20
-316.670966 -172.365022 1916.315079 54 47 20
-305.734801 20.342125 1812.836456 129 122 95
-314.488292 -180.765069 1918.487930 163 150 103
-153.194129 12.027244 1761.938858 144 132 95
-353.169847 341.502452 1658.939171 134 166 151
-330.395484 -18.584609 1834.606552 21 16 14
-316.052842 -2.128014 1818.758011 90 83 61
-139.741099 -13.863640 1762.891197 162 146 105
-171.569002 -48.826033 1791.711998 62 56 46
-351.403022 456.147146 1594.104195 155 145 69
-316.992879 -31.114250 1823.963737 112 104 81
-350.537252 317.621160 1650.961304 102 148 156
-365.673876 -342.303300 1984.135818 255 255 255
-348.318672 320.222378 1640.239716 63 95 114
-362.875843 437.149429 1585.029888 152 156 109
-461.394405 -130.731118 1893.454361 109 99 47
-461.095858 -141.123426 1893.772125 191 186 113
-339.680552 293.311906 1628.339005 55 62 64
-344.785571 343.215752 1605.524254 158 182 165
-382.725239 384.983802 1596.888924 71 87 81
-465.706682 -126.216626 1874.206161 177 162 97
-343.111205 328.255558 1598.190689 49 79 92
-469.252682 -110.796058 1857.338905 165 155 96
-338.331103 316.539884 1595.664597 131 161 147
-339.104033 285.638142 1609.847069 62 81 93
-338.733625 332.559896 1584.700966 148 178 171
-346.445084 199.684572 1648.787117 254 249 244
-457.617903 -154.042363 1861.935806 51 47 26
-344.869256 329.909539 1583.647919 55 91 110
-343.426895 424.543285 1534.098339 134 138 55
-459.975195 -49.259755 1789.383125 254 254 253
-449.748182 -54.004705 1786.396408 45 31 40
-449.748182 -54.004705 1786.396408 45 31 40
-334.253860 304.758239 1572.378445 52 58 48
-435.818291 -64.453417 1780.997467 254 253 253
-479.869986 -62.236929 1796.393967 151 139 84
-309.910607 445.669651 1491.853523 117 121 45
-309.910607 445.669651 1491.853523 117 121 45
-368.231583 377.869058 1546.242809 76 108 121
-330.839133 298.851848 1567.853069 48 81 101
-353.510118 406.349325 1525.478554 147 147 113
-316.898775 424.598169 1502.268314 117 109 32
-377.810407 361.769032 1554.572582 117 120 86
-335.988903 309.707284 1557.593155 77 123 152
-457.740116 -77.002358 1782.920265 81 70 36
-330.611396 281.354046 1566.312504 111 138 114
-478.905296 -63.149667 1783.647728 124 111 64
-330.386400 290.564895 1560.238457 136 164 150
-457.660151 -68.335789 1769.169998 87 77 65
-319.889784 246.128488 1560.578632 75 73 74
-468.653822 -72.340041 1762.697601 115 98 55
-332.001734 298.546672 1538.632393 81 120 121
-332.001734 298.546672 1538.632393 81 120 121
-308.333445 445.569468 1462.148380 141 143 109
-343.901253 389.910960 1500.862312 163 163 109
-312.164307 420.976257 1472.247601 181 181 151
-364.613366 348.220325 1522.282887 31 47 60
-315.191388 394.523096 1473.383617 61 59 25
-471.800518 -61.509931 1739.008904 102 87 74
-474.022532 -59.201634 1738.510895 102 87 74
-309.982824 452.213526 1441.996765 195 192 184
-334.304976 384.157920 1478.634644 68 72 43
-310.811138 437.054110 1439.679146 164 161 152
-311.854672 402.981949 1451.521778 98 98 44
-307.210588 505.867672 1404.349613 165 163 161
-307.656550 434.414339 1433.528042 88 89 55
-307.656550 434.414339 1433.528042 88 89 55
-303.886628 438.581657 1429.883766 78 78 44
-300.278974 453.879690 1421.459389 178 175 142
-319.659424 418.650007 1442.150021 125 124 85
-297.439909 459.895849 1413.899708 103 107 68
-298.207641 485.171223 1401.365757 101 102 82
-323.885942 376.790118 1456.056881 21 22 18
-301.894307 482.788038 1398.675632 185 182 161
-299.641871 479.578590 1398.405361 185 182 160
-328.489900 395.173049 1444.984818 120 120 100
-783.284569 632.343817 1537.616920 140 137 65
-323.230362 400.316095 1436.857605 162 164 157
-298.662996 566.360331 1354.069138 113 120 80
-305.261302 407.069254 1422.516251 123 118 78
-327.745461 392.005944 1438.067818 180 177 170
-300.573778 523.263884 1369.384289 66 67 47
-332.614493 368.456936 1446.040726 58 57 36
-293.342352 563.829708 1344.077015 170 174 144
-326.344013 385.839176 1432.378101 75 71 33
-329.852748 358.492446 1444.214535 168 171 118
-289.598584 543.720102 1342.817116 67 71 65
-347.233844 325.697088 1453.820896 134 150 119
-319.262552 359.375858 1423.864079 242 224 213
-346.580029 291.685128 1440.331078 145 155 148
-346.580029 291.685128 1440.331078 145 155 148
-314.510870 684.686041 1266.793346 125 133 117
-314.510870 684.686041 1266.793346 125 133 117
-352.357769 288.342142 1429.793739 247 232 223
210.146308 821.894264 1845.410347 159 164 179
-322.210431 873.071575 1737.813568 79 91 125
238.481069 798.677063 1804.442406 29 36 46
-694.901180 929.662323 1634.597778 205 196 192
-620.371580 906.509399 1641.132927 88 97 138
315.214205 685.232782 1772.688675 184 181 181
-619.418669 935.750580 1614.583015 205 196 192
324.002314 679.832649 1767.812157 179 174 169
-21.306065 512.298679 1857.597733 42 40 33
-30.288202 515.047407 1855.117989 42 40 33
-25.888598 510.882473 1844.830513 89 77 49
-51.257342 560.108471 1812.528038 100 101 91
-51.257342 560.108471 1812.528038 100 101 91
-51.320833 553.801966 1814.172745 82 88 93
-51.347643 731.530285 1695.795059 122 157 176
-49.827138 792.694855 1652.807045 172 173 174
-49.827138 792.694855 1652.807045 172 173 174
-99.379462 540.438032 1786.064720 67 71 45
-244.671440 238.553715 1958.487511 144 140 83
-369.367337 856.056499 1560.683632 148 162 134
-373.168063 839.338207 1567.436409 94 120 111
-369.167709 570.418787 1730.013084 39 48 50
-378.318644 555.859852 1739.473915 38 41 43
-378.318644 555.859852 1739.473915 38 41 43
-423.487186 493.196774 1778.614044 26 41 50
-399.322462 535.293341 1750.200653 58 58 35
-338.898492 649.585772 1670.167923 109 119 124
-277.375984 155.269837 1962.005615 185 173 114
-283.363366 106.764817 1986.683655 187 175 133
-348.100424 599.106407 1693.607521 37 42 52
-178.037441 -153.234518 2127.928925 254 247 244
-290.897632 94.923258 1986.403084 177 166 106
-363.086057 609.476376 1684.708595 165 167 168
-386.956549 558.254623 1717.517471 112 112 90
-291.885233 128.126621 1964.052963 77 67 50
-291.946268 82.429487 1990.987206 55 47 31
-268.944001 195.379591 1920.965767 14 14 14
-359.302187 589.481497 1694.685364 60 66 57
-359.302187 589.481497 1694.685364 60 66 57
-374.162030 570.530272 1706.906509 68 69 47
-335.900736 381.393528 1814.772606 46 44 47
-338.321447 383.011961 1813.674736 46 44 47
-359.869885 597.347355 1687.128639 124 128 111
-344.275641 394.295478 1805.435181 39 62 79
-294.130087 165.324831 1935.510445 59 49 29
-380.075526 852.665806 1534.839344 193 187 158
-325.648713 -75.453508 2079.119682 174 170 90
93.757051 242.368817 1847.652054 81 110 117
-359.588981 673.736191 1635.505676 200 200 195
-320.147729 351.061535 1821.772575 254 239 235
-326.480627 171.877611 1918.593216 15 13 12
-334.413743 152.493191 1929.284668 137 143 110
-378.287387 557.333660 1696.806717 83 92 73
-325.785804 301.091218 1840.889168 143 141 108
-374.042535 559.860849 1694.268227 169 174 173
-370.285654 815.512943 1543.824100 149 149 148
-369.054127 561.800051 1689.209366 35 41 46
-367.527032 814.952850 1540.934277 206 205 202
-420.550966 469.466639 1747.942162 52 87 105
-371.653128 432.511282 1764.028168 95 133 150
-382.807899 536.607885 1703.786278 180 181 174
-345.721984 30.832770 1993.964767 43 35 30
-356.790185 98.928893 1954.807854 36 32 28
-422.094011 462.935162 1747.658539 40 56 67
-368.621087 278.886867 1846.765137 135 130 83
-339.325809 153.666365 1915.730858 38 34 30
-356.522751 837.807465 1519.761944 194 194 178
-379.978895 268.592024 1849.010086 48 48 45
-341.647863 6.459893 1995.229340 40 37 31
-359.504580 587.691212 1659.565544 204 203 197
-370.721793 519.360447 1698.872566 83 89 36
-386.323404 433.465910 1749.445724 91 137 157
-376.215148 517.364168 1699.856758 68 71 35
-371.738410 236.066484 1854.536629 93 88 87
-298.776698 -312.939882 2157.713127 55 51 41
-321.962976 -311.333919 2159.051514 254 248 244
-386.906981 126.458764 1914.871979 197 184 119
-370.550323 50.694722 1954.774475 189 180 118
-370.550323 50.694722 1954.774475 189 180 118
-322.415614 -264.702535 2125.629807 254 249 245
-407.894039 470.147514 1716.315269 51 83 100
-405.546188 471.104097 1712.477493 81 110 117
-371.082759 -142.115295 2053.607368 36 32 23
-405.021000 -295.848656 2144.007492 251 247 244
-385.905910 119.723701 1905.907822 128 112 68
-641.367245 -8.680069 1995.623398 55 51 41
-404.020739 293.270469 1801.995659 122 124 99
-404.336357 293.231654 1802.043915 122 124 99
-406.335878 271.588421 1814.357948 183 171 117
-377.600288 506.838036 1678.123474 149 146 55
-330.343008 -325.584602 2138.690758 34 32 29
-408.042669 275.700879 1809.890175 42 44 34
-406.962919 263.325858 1815.350914 163 150 90
-415.129328 292.354226 1799.357033 25 25 19
-419.468260 231.165981 1832.092094 158 151 109
-365.048504 348.650050 1758.961105 61 107 151
-417.219305 292.906165 1795.005226 183 184 141
-357.859612 344.993544 1757.166481 78 125 161
-417.741394 266.180420 1808.608437 188 173 113
-414.085197 266.846871 1806.692123 51 48 27
-419.431019 230.499959 1827.606773 34 34 25
-373.865700 -211.328053 2066.399193 80 69 38
-375.225043 -179.691660 2045.718193 70 63 35
-380.856824 -133.787489 2018.088722 100 92 46
-380.856824 -133.787489 2018.088722 100 92 46
-379.543042 296.840954 1779.106712 19 19 19
-364.606810 354.942083 1742.597008 75 100 112
-395.328760 181.784523 1839.511871 55 47 37
-389.793372 -40.267923 1961.027718 123 116 66
-412.643766 248.427343 1804.824448 169 152 97
-400.015259 95.843965 1886.410713 192 188 130
-365.220356 130.980635 1859.865570 60 61 61
-415.054655 283.245897 1783.323288 202 187 135
-397.206926 -63.525778 1969.452286 176 168 102
-414.418507 256.281757 1796.295166 183 170 111
-399.473000 286.509275 1777.260590 16 12 10
-399.473000 286.509275 1777.260590 16 12 10
-375.510073 304.185486 1763.995171 24 24 24
-407.573557 -370.145512 2137.092209 119 108 37
-383.767080 161.158657 1841.260719 16 14 14
-379.485703 154.607320 1843.427849 16 14 14
-346.522832 517.968941 1638.829422 183 180 101
-346.522832 517.968941 1638.829422 183 180 101
-338.772559 527.165890 1632.328606 170 172 84
-393.225312 187.017572 1825.896835 20 25 23
-393.225312 187.017572 1825.896835 20 25 23
-410.023499 47.249112 1904.261208 144 131 81
-394.487786 192.074275 1822.324753 152 149 97
-364.796400 387.338781 1710.464096 61 91 106
-314.590383 785.847569 1484.778404 115 128 146
-393.896699 183.214712 1824.316216 142 136 93
-393.896699 183.214712 1824.316216 142 136 93
-390.691376 -172.938955 2017.610550 28 25 20
-390.691376 -172.938955 2017.610550 28 25 20
-392.536902 173.379886 1828.746033 121 119 86
-390.286803 184.729719 1820.078468 37 37 29
-365.735865 382.295799 1708.900261 85 141 161
-373.316956 151.480126 1835.458374 16 15 15
-384.889627 173.429286 1823.080635 38 35 28
-394.382787 -236.265087 2046.394730 63 56 29
-386.691809 -182.577717 2015.142250 31 30 20
-402.788162 450.023556 1674.689674 58 94 104
-402.788162 450.023556 1674.689674 58 94 104
-413.782787 107.559228 1861.538696 10 10 10
-276.992750 141.019845 1821.317482 131 113 64
-397.317648 -247.163844 2045.318222 21 16 14
-382.565117 -88.045239 1956.367111 14 11 11
-414.326763 57.296002 1882.897377 202 186 127
-425.115347 97.184306 1861.004639 150 139 81
-425.115347 97.184306 1861.004639 150 139 81
-364.295650 -262.929821 2043.932533 183 182 113
-402.677202 -249.987268 2041.488838 156 161 98
-402.677202 -249.987268 2041.488838 156 161 98
-303.154659 84.167451 1845.051384 58 55 47
-334.560061 -392.337894 2105.763054 147 127 73
-248.726273 222.846532 1759.292221 53 47 28
-258.149600 216.119194 1762.483978 161 141 93
-394.560456 -269.531679 2043.775558 40 40 18
-379.847002 -19.369344 1907.101631 45 43 32
-292.279863 144.196284 1805.391884 87 75 50
-341.019583 506.725788 1619.272041 187 184 108
-372.612572 -388.986278 2102.861595 171 161 99
-357.103920 334.109354 1713.802338 34 40 53
-338.646746 517.705727 1611.376762 172 170 101
-304.632711 -387.377429 2084.892082 24 21 20
-349.959016 -84.959555 1930.099487 121 119 75
-380.737376 -426.573563 2114.962387 134 118 76
-384.669852 20.815216 1877.215958 12 11 11
-407.314587 -145.674205 1969.182968 167 158 95
-289.194369 93.350852 1822.711754 126 115 89
-289.194369 93.350852 1822.711754 126 115 89
-349.250102 -91.635436 1930.137634 43 43 33
-332.449985 -135.919821 1950.635529 91 83 53
-361.760569 476.289558 1629.637718 146 140 65
-364.557314 -428.946114 2109.676743 122 112 64
-357.543087 -78.016025 1922.553825 119 111 62
-362.693596 -58.624661 1911.654854 145 132 82
-362.693596 -58.624661 1911.654854 145 132 82
-342.484403 502.216291 1610.677910 158 153 81
-307.941294 -392.962933 2077.915001 57 48 27
-334.516931 -148.987067 1951.652527 68 63 35
-422.319126 -200.009751 1993.049431 130 122 68
-277.220750 121.795380 1797.309303 156 132 92
-281.097054 108.201861 1805.046844 155 139 98
