ply
format ascii 1.0
element vertex 1053
property float x
property float y
property float z
property uchar blue
property uchar green
property uchar red
end_header
54.251969 -275.891280 829.885960 100 87 103
57.428384 -265.612340 827.614212 103 82 94
57.019210 -289.511228 829.932308 71 53 65
56.189609 -285.623336 830.801487 67 50 58
54.405779 -293.693423 834.643269 116 95 111
56.821984 -281.695628 831.310463 102 84 100
59.100854 -287.075424 833.088398 58 40 48
59.146923 -273.727894 834.303951 46 35 37
59.146923 -273.727894 834.303951 46 35 37
63.041842 -274.416041 835.167503 94 80 92
65.571535 -219.802713 828.986359 103 88 104
65.571535 -219.802713 828.986359 103 88 104
67.325395 -222.521830 830.221844 63 51 56
67.532349 -214.354873 831.264114 109 95 120
62.016672 -268.575954 841.699409 117 99 112
62.016672 -268.575954 841.699409 117 99 112
65.341246 -272.964263 838.289547 104 88 98
66.103768 -274.991393 840.003777 66 50 61
64.534974 -271.387792 842.228603 34 24 28
68.327135 -248.925114 838.780308 35 22 26
66.952175 -338.264608 846.781349 93 83 91
70.599508 -321.477580 855.167103 94 58 54
72.509325 -326.488614 856.895065 160 131 127
75.465471 -337.132287 855.446529 91 80 84
78.309363 -336.386132 856.598186 91 79 80
78.309363 -336.386132 856.598186 91 79 80
79.988843 -302.455926 852.766323 121 100 99
78.286010 -281.313705 853.964901 16 16 15
77.214748 -320.986772 861.318111 174 143 141
78.204304 -315.825725 860.053730 177 147 144
82.704198 -307.293034 855.407906 88 72 75
85.315603 -234.052753 848.849297 125 106 113
80.522877 -332.641912 861.681843 78 66 80
80.522877 -332.641912 861.681843 78 66 80
84.146291 -286.083555 854.111767 99 82 89
83.766854 -336.247444 864.346027 75 68 77
98.024827 192.201138 811.654472 153 123 104
87.898207 -287.006688 856.529999 60 46 48
87.898207 -287.006688 856.529999 60 46 48
86.675525 -335.228992 864.982796 78 71 75
88.994890 -208.377814 855.084610 77 67 77
91.431695 -191.686141 850.862694 25 19 21
85.124159 -293.214202 869.063950 106 84 92
92.263830 -206.852579 860.752010 179 145 139
92.263830 -206.852579 860.752010 179 145 139
92.792803 -278.385973 871.390438 109 87 105
97.327024 -166.467345 859.914970 81 56 61
98.078656 -265.874147 873.983097 182 154 150
100.100243 -333.787394 880.772686 71 65 75
97.875571 -305.558515 890.824795 171 138 130
111.666274 -183.836401 874.195004 62 72 72
111.661160 -331.345439 889.107323 76 66 74
111.099541 -328.226495 892.579460 88 76 92
126.195705 204.065084 837.594128 132 111 99
116.717613 -331.189346 896.529102 68 60 69
117.370844 -329.032803 898.366356 36 25 27
111.603355 -252.026939 904.340744 173 141 137
122.563827 -330.591822 901.239109 19 14 16
126.365447 -116.868675 883.599854 93 66 73
136.300743 -129.362488 888.556385 46 34 35
132.417130 -223.020697 903.683090 129 100 94
116.697383 -356.818938 941.021919 24 14 15
130.651510 -315.973449 915.618229 183 149 143
132.931244 -328.973246 913.313866 73 62 69
132.931244 -328.973246 913.313866 73 62 69
136.479568 -73.642164 887.889862 138 119 117
137.112129 -63.686782 886.476707 119 100 108
138.669980 -141.955519 898.161030 83 65 60
136.521029 -324.978685 918.358421 117 95 102
141.271996 -74.055737 891.800594 118 97 99
151.576400 175.772977 857.707024 68 50 44
145.159328 -22.425433 885.578346 92 75 84
141.674912 -327.662683 921.119595 77 64 67
153.897762 176.016724 859.195805 99 82 75
138.322103 -344.055390 930.793285 63 47 56
168.897247 -305.726051 878.141880 41 29 33
144.484019 -324.179196 927.073193 97 82 88
151.833260 -72.378111 895.940304 117 98 94
146.520257 -328.457928 930.083370 30 25 24
149.758279 -280.550575 931.521988 152 113 109
161.723948 -53.584886 908.344555 48 41 38
164.273763 26.145124 902.504349 161 130 125
164.419937 -21.690273 909.285355 175 143 131
164.474261 -38.828754 910.943413 164 130 116
165.249419 -12.948073 908.167648 173 136 123
165.523660 -5.508822 910.162067 92 74 91
173.341143 92.215186 901.362228 173 137 129
177.123523 36.456972 903.975868 185 150 139
180.541658 138.029814 904.183674 108 100 90
181.549871 113.618255 908.694935 68 37 27
177.220404 -265.111995 957.306385 156 120 112
183.122170 125.766313 909.570312 124 84 100
179.982007 -291.429281 962.439442 163 129 119
191.932833 210.153866 893.273449 61 46 44
187.198746 114.372349 914.709854 67 36 28
190.123212 108.244824 918.652534 147 102 101
191.753829 133.043003 918.171597 179 148 135
202.240062 -167.953467 968.142223 163 124 114
209.341693 131.971109 935.268307 170 137 132
212.535882 -193.180621 982.762718 214 176 163
216.560316 -287.783885 1000.037098 167 128 121
216.560316 -287.783885 1000.037098 167 128 121
218.739271 -366.565752 1013.029289 133 99 97
223.202968 0.228004 967.145157 142 109 96
223.234272 -298.757887 1007.194614 176 136 133
226.685643 -117.921042 985.507679 185 152 148
227.213573 -296.278191 1011.750698 164 126 121
227.213573 -296.278191 1011.750698 164 126 121
235.096455 9.019106 979.338169 172 137 131
236.618686 -41.325781 988.270569 153 119 108
247.292757 139.626908 945.749760 93 56 42
240.802550 -71.622592 993.994713 91 73 70
244.913530 5.779330 987.965393 59 36 31
245.565057 -19.434783 990.746117 111 81 71
245.565057 -19.434783 990.746117 111 81 71
245.304966 108.372307 976.938820 57 42 41
248.705840 150.162566 969.632053 61 49 49
251.203370 139.924824 971.342468 166 134 124
249.449086 41.023692 990.320396 182 148 137
249.449086 41.023692 990.320396 182 148 137
249.455023 40.841347 990.341663 182 148 137
249.455023 40.841347 990.341663 182 148 137
253.286862 -105.337429 1002.509022 116 93 100
251.765704 -66.252202 1000.576401 29 24 22
250.294352 0.413211 995.019054 149 118 109
252.600169 -66.127235 999.366570 29 24 22
249.637389 62.577361 987.946129 179 147 136
249.368048 130.380762 980.265808 179 143 131
251.605463 136.679518 975.858784 176 141 127
254.256582 -175.428140 1015.646935 201 166 153
258.422399 25.099918 996.838856 128 101 93
258.422399 25.099918 996.838856 128 101 93
258.422399 25.099918 996.838856 128 101 93
263.209224 -363.699722 1057.102489 169 133 123
263.096094 -119.330728 1026.511574 144 125 127
262.884164 85.670090 995.136261 75 52 47
264.959860 -365.481853 1061.585140 167 130 119
265.274167 -365.229893 1061.080265 167 130 119
265.082622 38.221428 1005.166626 114 93 100
265.818548 -108.493030 1029.303932 134 112 122
265.976310 31.120542 1006.546497 66 49 52
265.015697 56.432855 1006.364441 129 107 120
265.627551 44.826943 1007.300472 58 43 54
285.584927 190.114760 936.982822 57 38 32
269.983649 -117.809093 1033.447361 77 54 65
272.214842 -125.757205 1036.639404 60 46 57
272.214842 -125.757205 1036.639404 60 46 57
276.693559 -140.712214 1043.130112 46 33 37
272.853065 -46.436718 1041.811466 38 29 34
278.364420 -144.455886 1044.267082 109 86 100
279.892874 -232.479668 1056.817245 141 112 115
271.406865 -62.218159 1055.209637 135 109 112
272.034574 -59.881961 1058.209801 139 116 120
269.050622 -18.764322 1062.130260 48 36 43
282.377553 -154.974818 1050.971031 42 33 37
263.082838 91.066086 1071.082497 167 150 152
284.867477 -161.963892 1054.597855 74 52 63
284.597278 -146.480703 1067.634106 160 139 138
284.087324 -142.326033 1069.788265 71 56 65
292.082000 -186.128736 1065.309906 87 62 75
291.447854 -221.648431 1078.240299 93 73 71
289.474130 -156.657088 1082.223320 68 53 56
299.641967 -239.015436 1076.189137 176 139 132
301.567531 -212.150240 1069.818401 59 41 40
272.681713 -97.286236 1142.766857 75 62 71
301.082635 -197.076118 1075.348568 88 64 71
317.129087 194.236565 966.279125 92 62 57
285.694242 -123.251069 1129.278755 139 112 124
306.144071 -193.786764 1078.346443 116 94 107
317.299509 201.688290 965.175056 93 62 54
305.354118 -272.720242 1096.768379 198 164 155
301.826119 -177.359903 1089.849281 131 106 117
311.058426 -238.837504 1085.680866 95 73 63
275.740790 -49.794984 1167.740440 90 71 71
310.552859 -206.670356 1086.520576 75 52 61
305.327392 -170.479620 1105.224419 120 94 104
293.496323 -136.126184 1140.041637 148 123 120
293.991923 -146.174002 1140.489864 68 55 59
293.991923 -146.174002 1140.489864 68 55 59
338.841200 217.799067 925.030518 77 50 42
283.411503 -47.081447 1176.341629 29 22 23
321.247220 -344.419837 1116.991806 184 147 135
287.626886 -50.404131 1176.652718 112 86 84
320.852327 -215.345979 1098.629665 71 48 61
281.414056 -255.071020 1248.350334 108 87 106
325.697207 -363.169575 1121.422672 187 151 143
303.653717 -146.251810 1153.163528 133 109 114
326.481748 -346.751618 1122.012138 181 144 129
285.869837 -255.970407 1257.402325 72 51 58
328.802299 -330.523992 1123.181057 171 130 118
333.043838 -245.200706 1105.645752 89 70 63
334.817696 -338.883138 1124.456596 60 38 33
335.123396 -310.356069 1120.893192 66 44 39
334.649587 -255.153942 1113.115120 50 35 30
339.793849 -376.422763 1136.967945 180 144 136
336.043167 -209.878039 1117.724228 51 42 50
341.294932 -254.601145 1113.238049 129 105 112
341.310716 -339.930701 1135.066032 118 93 98
344.774222 -354.732060 1130.591011 122 100 101
305.125976 29.989523 1187.902164 255 190 172
304.958272 43.411747 1186.015129 255 190 173
304.947686 49.405056 1186.105347 66 40 31
344.061875 -374.312353 1142.131615 174 133 121
345.502543 -384.078121 1145.709801 171 136 122
347.454071 -354.946160 1132.879543 35 25 24
344.997549 -244.555664 1116.975784 136 113 118
343.915749 -213.941216 1125.758553 89 66 76
348.712897 -345.606494 1140.248394 23 20 21
346.617675 -252.735639 1127.413273 62 42 41
346.312904 -291.346908 1139.746571 138 115 110
346.312904 -291.346908 1139.746571 138 115 110
347.263336 -276.646900 1137.412643 94 71 70
347.401261 -266.265488 1134.416771 139 114 110
348.399615 -254.962325 1130.660820 143 118 111
349.740982 -248.744440 1124.527359 157 135 127
348.892975 -269.619203 1136.372280 83 59 58
348.457408 -222.965002 1128.601265 72 51 58
350.063896 -281.116986 1138.829803 161 136 132
349.510908 -230.834723 1129.173660 114 88 101
349.367046 -219.596982 1128.233719 117 92 89
352.210617 -241.516399 1126.227379 109 88 73
357.219458 -378.912210 1144.860554 123 100 105
352.177405 -275.060892 1138.787842 113 84 79
354.363918 -256.322265 1130.650997 165 141 136
351.946712 -218.184900 1132.326603 104 83 92
353.678727 -265.043640 1138.492393 48 33 30
353.491116 -223.982310 1134.619808 109 87 101
355.131269 -269.468927 1140.279579 165 139 128
356.770968 -311.578202 1147.789955 188 159 146
370.968652 -204.038239 1070.415306 29 20 22
357.039666 -272.731757 1145.071602 81 58 50
357.674694 -317.752504 1154.683208 115 86 82
358.030343 -224.866033 1138.692188 103 82 94
360.117769 -246.712828 1136.012554 124 102 86
360.257006 -265.510130 1144.727039 135 111 98
332.277989 -120.147204 1224.854660 96 74 78
329.945660 -40.771756 1223.586559 36 26 28
332.988095 -52.822816 1228.177643 125 97 107
392.262197 -191.326821 1019.517994 108 89 107
363.394070 -218.954229 1150.948715 107 90 92
334.730244 -43.875363 1225.518036 67 45 50
368.413830 -333.805656 1168.384075 116 86 82
364.173102 -215.545630 1154.561710 29 25 27
367.284393 -223.594379 1149.543476 33 21 24
370.865941 -345.288181 1171.537209 156 133 127
371.240902 -332.022095 1169.000244 170 144 139
371.086693 -336.039972 1171.094799 117 91 86
338.630986 -41.175771 1232.774353 97 80 82
372.350144 -365.882874 1177.672195 97 75 70
373.742127 -351.927614 1175.679493 121 114 118
374.510288 -345.275569 1175.944614 145 124 115
377.242494 -320.810747 1167.728329 177 146 137
374.619412 -222.110677 1155.007935 112 87 94
379.636812 -358.716035 1177.882290 104 83 78
347.629404 -93.723953 1251.584053 17 12 12
385.338092 -358.089542 1179.994869 93 67 64
381.352472 203.496432 1032.331467 96 65 60
386.208773 -307.269239 1171.645355 110 82 74
386.475825 -344.197440 1182.626724 173 149 144
386.519098 -316.944551 1174.483109 132 103 94
385.122943 -334.641862 1188.419724 151 130 126
386.558604 -290.907788 1169.972420 117 85 84
387.795997 -309.084606 1172.025490 153 126 118
388.012290 -345.956659 1183.365440 121 98 99
389.257979 -357.538915 1183.407307 102 81 81
388.952231 -294.631863 1170.668793 169 143 135
389.494729 -351.960754 1186.133575 167 148 141
389.133668 -344.908452 1187.944126 168 149 145
388.387418 -334.140444 1189.692688 113 89 85
389.880419 -320.994925 1180.516529 195 168 161
386.332321 -221.557403 1166.743946 115 90 104
360.421777 -96.481287 1255.678177 96 72 76
391.729832 -353.181791 1191.368961 112 92 93
392.358279 -356.800652 1189.677048 107 87 88
390.950584 -332.717204 1189.614677 157 132 127
392.740250 -295.750999 1175.762367 132 107 101
392.740250 -295.750999 1175.762367 132 107 101
392.752504 -332.162642 1191.837215 134 105 101
392.918992 -337.851334 1194.225979 112 86 80
376.175094 -144.265175 1229.106331 127 97 94
366.085267 -85.720265 1262.538528 104 80 84
366.085267 -85.720265 1262.538528 104 80 84
421.680164 -22.960784 967.286015 88 70 71
400.103760 -310.252070 1192.997456 158 129 124
401.263046 -248.807049 1183.102703 173 144 134
404.063559 -349.296069 1212.148666 69 48 47
404.063559 -349.296069 1212.148666 69 48 47
407.053041 -249.347830 1186.631393 92 63 56
409.839249 -319.117522 1208.082199 75 55 53
410.908985 -276.138282 1196.337605 179 152 141
411.065674 -271.229577 1196.002769 84 57 57
415.523863 -326.025176 1208.311081 175 148 139
413.286638 -248.512936 1197.079182 168 140 130
415.562725 -306.277514 1210.246181 166 137 126
415.539169 -270.864773 1206.181812 154 130 121
421.644640 -388.808060 1217.019081 186 151 141
421.345186 -345.949316 1210.018444 39 29 22
416.698360 -262.492061 1205.572701 144 119 112
417.494631 -267.114210 1206.161594 107 82 74
422.327948 -336.996961 1212.293530 139 123 115
422.177076 -340.432167 1214.684868 41 27 26
424.050331 -350.430512 1210.317707 96 72 72
420.934772 -261.991715 1207.397461 81 57 55
420.934772 -261.991715 1207.397461 81 57 55
404.037189 -110.448420 1252.807999 120 92 91
424.665785 -336.731052 1221.421051 23 18 19
429.311991 -362.231231 1230.093670 179 144 134
431.619167 -344.614863 1221.755123 28 22 16
432.915258 -273.231387 1213.762474 59 38 39
433.231831 -245.040274 1210.281849 56 36 30
433.370829 -239.186811 1208.064270 53 33 29
436.607933 -247.085333 1211.174488 119 98 93
406.018591 120.632601 1252.742767 66 51 60
442.097330 -359.951329 1241.608238 187 152 140
438.670206 -233.767366 1211.943150 104 81 79
436.002111 -189.221430 1222.302437 37 29 30
436.002111 -189.221430 1222.302437 37 29 30
438.736820 -204.746461 1220.441341 112 88 92
438.736820 -204.746461 1220.441341 112 88 92
442.282248 -249.832845 1222.480392 182 149 140
419.779062 12.817203 1260.011673 142 112 99
422.056866 -10.124518 1255.091763 91 68 73
447.860622 -236.890650 1231.239510 171 141 134
436.419678 81.518978 1252.568722 49 35 38
434.904528 132.223749 1238.010311 40 22 19
436.514044 120.702362 1247.576523 49 35 40
445.010042 12.510812 1260.086346 139 112 99
464.635944 -221.420932 1247.786903 174 141 126
445.168734 123.783123 1245.893383 133 103 95
467.461634 -174.824727 1247.804070 68 46 56
470.354319 -176.097465 1247.515965 119 98 105
461.229706 223.186827 1084.750557 75 53 47
464.159870 -96.854681 1260.862923 103 76 79
469.712543 -152.339542 1251.311684 90 67 71
462.026310 -18.979152 1249.302673 24 22 22
451.809788 135.521924 1248.265553 42 28 31
454.255581 192.106843 1230.229378 60 43 51
456.563091 142.476463 1246.158791 92 74 70
474.131870 -116.147590 1260.675621 123 101 101
482.127714 -201.593184 1264.412498 167 136 121
477.991104 -128.480887 1259.834099 45 33 35
461.417150 136.354601 1246.727467 45 27 26
469.615650 11.845581 1260.763550 146 116 103
472.301960 -12.487238 1257.351112 115 93 89
481.139278 -91.145414 1264.731789 131 108 105
465.733004 195.801961 1222.272968 134 93 84
469.672298 129.188383 1246.035862 137 109 95
480.211926 -7.162317 1261.655903 42 31 35
471.639013 153.461003 1233.143711 88 67 83
484.714746 -76.792455 1266.338444 103 80 85
484.714746 -76.792455 1266.338444 103 80 85
481.691551 -18.359651 1256.751633 24 19 21
482.452297 -24.706696 1254.018497 47 34 37
488.983440 -107.705200 1265.417767 96 73 80
486.832714 -22.346543 1253.092194 104 88 96
475.970888 160.089827 1251.074028 47 33 42
493.018627 -91.969270 1268.004227 91 69 73
488.074017 -12.123134 1262.044621 107 86 87
488.226891 -1.907591 1261.669540 122 101 101
487.433290 62.498540 1252.224827 108 87 90
497.126865 -94.401592 1269.620705 30 22 23
503.518343 -168.864298 1280.881691 181 148 135
500.396013 -77.720875 1271.592617 30 21 23
502.448654 -80.981362 1271.528435 95 75 86
558.510971 -66.256899 606.777096 58 44 50
502.464104 -61.265016 1271.799469 33 26 29
502.464104 -61.265016 1271.799469 33 26 29
511.082363 -169.316781 1297.102547 188 154 143
503.293085 20.631738 1262.594032 38 30 34
503.692293 29.105461 1259.780312 104 85 94
497.778130 174.344742 1233.312511 112 98 107
504.634094 56.753415 1266.365910 68 51 54
503.747177 96.122301 1252.580452 105 86 94
503.497410 109.748757 1248.660946 84 63 60
511.064339 -30.922732 1300.583172 67 53 60
507.510519 98.372728 1254.219055 69 48 63
503.681946 175.720251 1228.683662 92 78 100
514.875364 -28.884140 1285.344315 67 53 60
504.837608 221.301150 1161.591053 100 73 62
521.967602 38.583854 1208.509445 29 22 22
512.221956 71.239275 1258.799076 28 21 24
505.599451 204.646373 1223.406219 118 95 107
525.773621 -101.100206 1294.572449 91 66 57
516.343737 63.890153 1260.450268 93 74 91
518.781519 113.769913 1257.911110 90 53 45
526.150036 7.197093 1283.740139 73 60 69
520.942545 124.454367 1258.479881 93 51 43
527.976751 25.674871 1281.008816 196 163 148
526.811934 45.313385 1277.018070 97 72 77
523.590994 118.209183 1262.717628 255 222 208
520.800352 163.011575 1263.679028 180 149 136
521.891308 163.308287 1258.920097 180 149 136
522.571182 155.002868 1263.903618 182 153 135
524.869919 143.812454 1262.616348 106 91 93
532.392645 60.643977 1279.759598 191 161 147
532.236576 138.703620 1268.466759 190 163 145
547.302008 -33.536533 1309.774303 125 93 84
555.729198 180.879402 1267.123508 165 137 133
599.016476 -423.609304 1409.875774 102 64 71
603.046846 -408.680582 1409.576035 116 86 89
595.470715 -301.205826 1396.536636 201 170 155
595.755053 -300.751424 1394.824696 201 170 155
567.237568 113.004076 1310.416985 177 146 141
599.765396 -315.374255 1398.040295 116 87 100
563.775253 188.898444 1273.788261 120 96 81
608.093834 -375.420618 1415.901566 188 153 141
608.093834 -375.420618 1415.901566 188 153 141
610.393333 -386.368728 1418.229866 203 173 158
607.316828 -337.200427 1412.350655 214 175 161
573.600292 195.077956 1308.687401 83 72 68
631.553030 -409.182692 1442.897129 58 39 49
585.711718 191.620851 1322.644234 81 60 55
635.012484 -406.609201 1447.940159 97 77 85
635.012484 -406.609201 1447.940159 97 77 85
636.973906 -412.313318 1448.817539 59 41 48
636.883688 -402.119064 1444.122124 71 57 59
638.909388 -409.171581 1453.571796 50 34 41
609.916401 -23.755720 1376.028252 179 145 136
641.474962 -403.425646 1458.310890 50 34 37
630.529547 -251.298451 1424.415779 145 113 108
593.450928 221.832681 1318.776417 52 32 27
640.935040 -365.370488 1452.505589 27 20 21
610.799551 14.440887 1369.562340 26 19 20
607.333803 82.624722 1359.430885 110 87 98
644.196844 -392.045474 1410.018635 50 34 41
600.468969 183.100808 1341.156197 150 128 123
606.848145 119.323003 1354.551601 120 92 104
649.920273 -402.122116 1466.106892 51 36 41
649.920273 -402.122116 1466.106892 51 36 41
650.574780 -413.458443 1456.946945 115 92 106
651.428986 -404.535580 1464.846516 100 84 90
614.662313 53.839946 1373.050022 32 24 23
640.189981 -260.215473 1426.899052 25 19 22
600.742531 230.913472 1324.854851 74 51 52
653.224182 -409.806585 1464.486217 56 38 46
654.303265 -399.239492 1470.881653 96 77 86
613.060808 113.993669 1361.227417 107 84 95
626.153898 -46.615204 1391.116905 55 40 33
660.311127 -403.351784 1473.496723 93 79 84
660.595369 -396.559310 1481.104088 56 33 40
613.962746 167.984247 1358.499622 113 89 102
655.939436 -322.226167 1488.744259 71 50 53
661.728287 -408.072138 1473.408031 52 36 42
662.997770 -400.622702 1477.582836 67 52 56
609.321022 253.057909 1333.287430 114 96 86
632.736874 -16.779853 1394.689274 145 125 120
667.832232 -426.462317 1470.176506 113 94 102
619.433260 170.477617 1362.565041 92 42 41
666.556072 -377.600050 1482.671833 146 115 117
629.319525 65.237206 1385.308552 112 87 79
652.126980 -203.414488 1439.999866 140 106 103
634.824991 16.680470 1396.015930 69 47 64
620.504570 191.742933 1360.696316 114 52 70
660.800886 -278.016257 1469.338989 114 89 93
632.956076 45.219615 1385.930061 106 86 92
614.674473 268.348360 1335.283470 48 32 35
662.741566 -282.874584 1472.134972 72 51 61
615.620470 264.956689 1337.273312 107 90 87
646.509314 -87.955594 1418.701553 74 55 46
640.218973 12.472901 1402.553654 109 93 98
676.673794 -401.221371 1489.743996 85 71 81
644.069624 -9.780159 1405.971241 30 15 23
629.138136 172.759962 1374.502945 123 99 102
650.529003 -48.458320 1420.300865 105 85 89
626.001835 232.837105 1352.075481 101 80 82
659.863710 -116.931474 1451.996136 190 152 142
684.295654 -409.843540 1493.868637 91 71 88
660.920906 -115.331709 1441.723824 190 152 142
686.943197 -405.525160 1499.183369 56 38 44
629.475832 252.073097 1353.873062 53 35 30
671.872568 -216.341138 1464.136696 131 93 91
630.069399 270.259619 1351.816940 47 32 37
632.079029 266.353726 1353.977108 57 38 34
632.079029 266.353726 1353.977108 57 38 34
692.946339 -422.589064 1494.653416 86 68 80
634.076309 258.261752 1358.502388 67 49 41
693.234634 -399.217582 1506.695938 87 72 81
675.314140 -191.416764 1467.332458 185 149 140
665.849638 -91.564023 1434.070587 154 128 123
673.843193 -173.506665 1460.731602 178 143 131
691.266155 -301.261950 1529.208851 125 105 104
682.755280 -234.193635 1475.130272 141 111 105
684.928417 -251.527500 1473.570061 41 28 28
700.610876 -408.860874 1512.856483 103 82 97
679.680347 -146.924651 1461.381721 77 51 56
685.802078 -176.610899 1467.877483 50 38 38
702.613688 -343.813848 1521.283150 97 77 77
679.942608 97.355038 1645.354652 102 77 67
682.686710 52.910793 1632.899475 85 71 75
686.105347 -147.207499 1470.404720 40 34 33
703.094959 -279.543352 1513.606167 104 84 87
703.312874 -274.730420 1513.051987 117 98 99
692.721033 -163.921165 1469.387722 116 95 86
701.906347 -249.333501 1491.229248 41 28 23
713.304710 -353.374481 1532.426357 145 124 120
688.645172 -93.853915 1464.567471 99 76 83
702.932882 -240.282202 1496.814728 175 143 130
714.473867 -348.790693 1532.310200 107 85 92
681.641150 208.077621 1623.150635 93 75 79
700.738049 -182.636714 1489.214420 110 89 92
682.267427 219.985676 1618.904305 114 96 93
707.974720 -235.986638 1501.402664 130 97 93
696.180248 -108.731592 1460.206890 94 77 90
710.748720 -250.007367 1498.361588 82 72 65
701.375484 -146.200490 1480.002975 90 74 82
701.375484 -146.200490 1480.002975 90 74 82
689.521885 201.098156 1632.598114 26 20 22
699.663591 -117.310464 1471.277523 30 20 25
712.768841 -238.793683 1505.951595 171 141 129
702.492714 -121.584964 1473.297882 89 74 90
705.178547 -127.410400 1481.726837 52 36 48
668.004513 273.866343 1401.842117 168 137 122
718.740988 -248.604822 1505.650806 75 66 61
696.224165 205.160713 1627.790260 104 83 81
710.930061 47.205031 1656.231880 108 93 90
735.141850 -388.017869 1558.360577 53 36 40
736.961126 -399.164963 1549.904537 51 31 39
736.961126 -399.164963 1549.904537 51 31 39
700.168753 199.735808 1636.680984 94 76 77
701.203203 206.897187 1635.139275 106 87 88
719.629335 -177.269495 1508.800507 110 87 89
2.231978 -379.748750 811.855125 61 39 35
4.838163 -377.969289 810.011387 57 33 34
19.170378 -344.601798 799.170494 69 63 71
29.367274 -225.405192 793.499184 125 106 109
22.923304 -344.249082 801.698780 20 14 16
28.791580 -234.441233 795.626402 119 104 110
21.346381 -340.484595 803.194714 84 74 82
26.520345 -307.415199 802.029514 69 56 62
7.062432 -429.421473 822.988224 51 34 47
87.133139 -314.386415 761.560011 69 63 71
2.786040 -389.768744 828.142166 80 59 58
31.777823 -288.731217 807.385921 16 16 17
-0.673758 -376.565599 834.169483 120 103 117
11.906911 -440.812302 827.026653 99 84 98
5.913373 -433.856010 832.931900 110 97 113
33.748981 -296.086955 811.030102 141 126 134
35.961351 -305.547690 810.226345 123 109 119
2.305191 -371.600056 840.163708 115 98 111
143.228626 -289.419699 730.504513 69 63 71
39.344636 -256.374049 812.648106 122 104 111
39.344636 -256.374049 812.648106 122 104 111
38.562673 -342.230797 818.852329 20 16 16
41.555664 -341.701627 821.614933 71 65 65
46.756226 -283.706808 824.637699 88 75 88
47.476798 -341.184902 827.092934 22 19 19
50.859928 -264.722562 823.992920 59 45 50
50.859928 -264.722562 823.992920 59 45 50
50.480348 -340.356326 830.226040 71 67 68
52.447468 -340.017796 831.997585 78 71 69
61.826825 -221.077919 822.523689 52 38 41
41.230428 -363.821030 848.128796 26 14 12
56.458616 -339.829135 835.172272 23 19 18
57.715189 -286.759996 835.066319 65 49 53
59.753686 -273.292708 833.800983 50 40 41
66.596460 -219.532704 828.120708 102 88 104
57.399952 -339.649868 839.303589 74 67 72
47.148240 -363.096142 850.740719 138 112 107
67.535776 -214.247942 831.262112 113 96 122
59.739852 -339.211249 841.550064 79 73 74
47.618976 -367.946172 853.135204 62 43 45
47.174340 -372.574306 855.646610 53 36 48
67.920077 -225.719380 835.424423 112 90 107
43.685427 -412.921524 861.032391 63 41 44
64.867878 -338.337398 843.341255 27 22 23
68.408018 -248.722219 838.717175 40 25 31
48.811531 -379.545426 862.440872 148 125 135
48.811531 -379.545426 862.440872 148 125 135
69.010478 -337.691259 849.235630 96 83 85
53.184044 -430.085564 869.106293 51 32 36
72.431195 -337.899685 852.390003 28 23 25
41.509828 -371.221542 883.207893 37 23 16
80.274165 -186.542737 846.846294 18 16 17
78.907198 -287.635350 852.292061 88 71 78
83.149195 -176.372874 845.684338 118 94 104
107.741094 193.127167 814.832306 156 128 114
80.960917 -305.685616 854.312611 74 60 62
84.982997 -180.820930 848.165989 143 127 130
77.562553 -325.493240 864.851570 178 146 142
90.760630 -207.191992 862.139988 179 145 137
89.072746 -335.396004 869.389439 24 18 20
90.917361 -262.887716 867.311764 109 89 107
92.724454 -259.603357 868.945217 108 87 103
90.320969 -315.070438 879.800797 198 164 151
93.024796 -331.365871 878.294277 79 70 81
97.178775 -334.241152 877.700520 17 15 15
71.982044 -399.317050 907.433033 42 24 17
89.036942 -358.798289 893.243027 118 94 108
105.493593 -332.733250 885.709858 22 17 18
106.922948 -332.909751 890.133858 68 62 68
89.836788 -407.782173 910.081196 137 115 130
96.141911 -358.136654 903.514957 141 120 125
97.872305 -357.335258 902.263927 141 120 125
92.010707 -366.611409 909.423637 76 60 73
94.862068 -422.546005 909.685135 61 45 52
95.139927 -426.669788 913.207340 67 50 63
93.506032 -418.689871 915.132809 72 57 64
124.387276 -123.171091 881.644344 87 61 71
145.881975 169.670689 848.442364 117 95 93
195.667624 -106.034982 816.394329 110 88 105
146.148312 141.812575 855.623531 76 92 86
136.756575 -46.638066 876.494408 116 96 93
138.532090 -46.410394 875.208473 116 96 93
132.429886 -96.913713 885.943222 88 65 71
137.690663 -63.653743 885.886478 118 100 106
128.116453 -325.943160 910.760689 118 96 101
145.033252 -13.798220 882.581520 92 77 84
131.615770 -329.382730 914.725399 78 70 70
131.615770 -329.382730 914.725399 78 70 70
144.884205 6.097791 887.431812 131 110 113
132.356775 -337.206936 917.539024 85 74 79
490.380478 -135.053658 537.708139 69 63 71
148.609102 7.716119 885.862064 132 111 111
151.349914 28.486603 884.444714 128 107 107
151.349914 28.486603 884.444714 128 107 107
137.468565 -329.078555 919.509029 23 18 19
153.081155 -72.309279 894.624043 118 99 96
137.440717 -364.326191 934.229279 59 42 54
131.758559 -435.316038 945.104885 91 73 79
147.560585 -131.865394 914.203072 192 160 148
141.855514 -348.665667 934.554577 147 126 128
146.833277 -416.426754 942.829609 130 105 119
164.728272 26.304239 901.988506 167 133 128
167.087209 -15.584265 909.330273 173 132 122
169.023407 -15.521696 907.806015 173 132 122
173.270380 93.656874 900.326347 176 141 130
152.465808 -444.856787 959.291649 113 88 106
158.859253 -343.712258 952.939987 187 154 145
182.117510 -16.797987 908.871460 168 135 127
159.692526 -400.212288 960.873604 196 163 155
187.289155 147.647965 898.976994 121 107 102
161.880255 -437.444448 966.128349 201 166 160
161.880255 -437.444448 966.128349 201 166 160
164.628708 -391.071153 963.723469 194 163 159
164.628708 -391.071153 963.723469 194 163 159
165.978789 -342.014647 961.349773 189 155 149
165.469217 -415.839577 968.328762 119 96 111
165.469217 -415.839577 968.328762 119 96 111
169.116044 -351.940107 961.797333 108 88 107
168.914962 -372.859430 965.537071 103 87 108
188.462639 114.362323 913.223553 64 34 25
166.081953 -427.380466 975.013733 128 102 119
166.081953 -427.380466 975.013733 128 102 119
169.697106 -381.703711 968.262482 193 164 158
171.818626 -380.323982 966.435528 193 164 158
191.301012 108.363163 917.233086 152 104 100
172.589076 -424.705219 978.094959 197 165 154
175.892794 -366.280437 970.875454 192 160 155
250.682116 174.026358 907.668686 70 51 44
223.075747 0.111477 967.327023 139 108 96
215.303326 -288.379073 1001.752186 169 133 122
225.367188 -297.222400 1014.356899 164 127 123
224.815679 -445.303345 1031.751156 152 117 127
236.686373 -104.504955 996.963024 162 126 116
236.686373 -104.504955 996.963024 162 126 116
244.262481 -71.431458 988.342190 98 82 81
239.247513 -132.635319 1003.198147 176 143 131
244.722939 69.830298 979.938507 84 61 55
234.192300 -436.690664 1041.867065 149 114 114
244.648504 -17.970812 991.868782 117 85 73
246.032238 34.215274 985.198307 46 33 34
251.677847 -94.701517 999.782085 104 81 87
250.399804 62.456143 986.876297 181 146 141
253.417158 52.488571 991.674614 107 79 91
254.672408 88.888347 986.821842 138 112 106
257.174563 111.466849 983.360863 39 31 32
257.174563 111.466849 983.360863 39 31 32
256.070280 135.835278 983.374310 128 105 117
258.123422 34.112549 991.478539 110 89 78
248.336673 -423.413897 1053.555870 217 181 171
258.450770 24.999882 996.813869 133 105 96
261.680841 37.117824 1002.332783 50 37 37
253.935027 -429.233027 1061.766148 222 183 170
260.814786 -27.102929 1012.870312 51 36 37
260.018182 -189.743066 1034.128380 142 106 96
266.000962 14.910965 1005.467224 80 60 58
266.736627 74.825418 998.282146 89 63 62
264.845610 71.452576 1001.678753 137 114 116
265.241146 38.047886 1004.960251 115 94 99
263.288736 -59.966588 1019.950104 124 107 109
266.137290 60.844272 1004.224586 76 53 62
266.994834 27.985495 1006.513119 69 51 49
265.097356 -8.793294 1014.207935 135 116 128
265.659571 -8.701160 1013.614273 135 116 128
265.611053 -4.362449 1013.633919 81 60 71
264.890146 22.829688 1011.983490 138 118 121
267.006230 -51.918834 1019.337368 60 42 40
265.621328 -85.392094 1025.142479 76 55 65
268.480849 77.484846 1004.239845 141 123 119
263.973570 -380.623603 1064.774799 166 125 115
266.910028 -110.168815 1032.775593 76 55 65
266.910028 -110.168815 1032.775593 76 55 65
269.505167 -432.104397 1075.572109 164 128 128
329.554987 210.681343 912.931347 79 57 52
273.551321 -134.191322 1040.078068 87 64 70
276.804996 -177.092671 1041.772270 67 53 51
271.199512 -46.510524 1039.139748 74 65 68
280.667472 -182.912254 1049.228764 69 50 50
278.361821 -142.761052 1049.769974 57 42 49
278.361821 -142.761052 1049.769974 57 42 49
270.636892 -85.644239 1061.779404 145 117 122
285.710740 -215.907979 1060.255909 78 58 51
286.235356 -165.144312 1057.922459 126 101 114
359.498000 -116.461718 937.854099 131 106 120
297.965121 -434.593439 1071.531773 208 174 165
271.933889 128.190124 1047.367573 66 49 63
287.603736 -161.890876 1057.453728 126 101 118
283.166003 169.904757 1030.364609 161 126 120
253.943539 6.507219 1100.029755 146 126 120
270.932412 -55.527413 1079.992676 123 97 111
281.388760 -45.473322 1063.663960 89 78 92
321.409464 -156.036818 1013.371086 80 59 67
266.421843 -16.472770 1093.032837 73 60 69
276.324368 -35.749933 1080.182171 102 85 100
284.636712 -153.063536 1082.944202 72 56 62
267.636704 -9.458989 1100.845528 169 157 154
268.730307 -19.120209 1102.048016 128 106 119
273.753476 -102.072811 1108.164692 89 66 76
266.425943 44.917616 1104.873371 103 84 104
301.234317 -191.068673 1077.665329 130 105 119
273.750234 -91.105139 1114.306831 188 161 157
251.738787 -29.135403 1147.368145 119 96 101
262.015152 5.756489 1130.267048 154 132 127
261.173177 55.775994 1127.708912 128 109 118
277.165008 -105.587530 1121.546555 140 114 127
261.897135 18.311460 1131.684208 155 134 132
261.594081 63.300383 1130.472469 42 20 21
261.045337 53.414404 1133.118343 47 27 25
263.151979 63.593328 1131.668091 58 37 31
262.727618 -63.324016 1149.644756 146 124 127
262.727618 -63.324016 1149.644756 146 124 127
309.849644 -194.778740 1087.299538 127 102 118
259.680510 170.095277 1127.869892 39 25 26
310.328865 -200.087547 1089.037132 126 105 119
294.281697 -143.702233 1116.034985 137 116 123
265.645218 -50.595391 1155.011749 95 79 81
266.909838 -52.776420 1155.105782 68 46 50
313.776660 -199.339843 1092.297459 36 25 29
269.135523 -61.354041 1154.450035 146 123 127
355.188179 213.522339 970.899296 91 61 57
271.469545 -62.724566 1162.358475 148 126 129
271.469545 -62.724566 1162.358475 148 126 129
272.194195 -52.084637 1161.300659 68 46 49
272.680712 -48.219705 1163.834381 47 32 34
283.614087 149.987972 1124.304771 65 48 36
283.565211 -60.979998 1173.658657 134 112 114
288.601995 -14.539129 1158.931923 65 48 35
333.380198 -360.221672 1128.605843 66 43 37
333.196092 -214.201593 1114.147568 37 24 27
331.847596 -209.845018 1116.342735 100 79 82
289.138484 -103.197265 1182.001972 25 19 20
335.997438 -373.620772 1136.981297 194 161 151
341.270781 -244.091129 1114.507389 135 114 113
341.500521 -355.866933 1131.641006 108 81 83
296.693492 -116.136289 1183.710480 106 84 86
302.473330 -137.506139 1180.580616 61 48 56
328.174067 -439.768505 1179.091930 195 161 153
344.290948 -245.121050 1118.410969 141 120 123
346.484470 -246.422648 1122.909546 73 49 41
343.805122 -320.818019 1140.261650 45 27 27
343.479848 -219.369411 1126.335621 32 22 24
342.689753 -214.766526 1128.265762 89 67 76
349.401402 -456.709242 1162.587547 169 135 131
347.611070 -223.528314 1130.351734 71 48 57
350.237203 -407.374811 1157.358646 198 163 159
351.946902 -392.750597 1153.871155 92 63 48
351.508522 -329.416132 1146.783543 172 148 143
350.229549 -284.761429 1142.233944 87 57 55
352.909517 -400.154400 1155.839539 198 164 157
352.740693 -347.827935 1148.455620 151 132 134
350.392938 -278.470802 1142.090893 102 73 69
350.392938 -278.470802 1142.090893 102 73 69
350.737047 -288.512301 1143.408775 185 161 154
351.774192 -272.642708 1140.538692 116 86 78
357.197309 -386.061811 1151.075649 129 105 111
305.662465 37.308058 1185.914516 67 44 32
305.024791 43.914118 1185.756779 255 192 174
358.509254 -397.578812 1156.794262 120 86 69
352.654886 -218.306923 1140.096569 93 70 82
356.066871 -258.623481 1141.558933 154 126 114
359.125185 -440.675402 1170.604134 150 112 114
362.926030 -385.201502 1158.895779 75 53 46
364.662337 -388.974977 1161.504936 74 54 44
364.662337 -388.974977 1161.504936 74 54 44
364.720106 -250.165892 1142.676735 104 76 65
364.935708 -412.567616 1171.154118 192 160 154
364.386153 -369.259381 1166.090488 165 144 143
367.554164 -392.972422 1165.370655 62 43 35
394.183946 219.743180 1009.262657 130 93 83
368.225837 -353.996325 1175.805473 85 70 73
324.717951 -41.560900 1213.426685 44 35 36
324.109030 -37.185991 1215.053749 101 80 83
374.403572 -398.965168 1173.587322 48 32 27
388.679314 205.793142 1040.125370 101 73 67
327.837133 -42.141628 1219.954300 97 80 83
336.297059 -72.240889 1210.774040 76 43 30
374.903917 -231.081486 1156.773281 101 76 88
376.739407 -342.108917 1179.102325 83 63 58
376.739407 -342.108917 1179.102325 83 63 58
382.521486 -402.184582 1183.020115 40 25 19
376.476169 -219.702673 1163.124943 97 74 81
378.276038 -224.454904 1162.698650 38 26 29
378.276038 -224.454904 1162.698650 38 26 29
381.722236 -354.042387 1179.708481 138 118 115
380.027437 -386.465359 1191.887569 130 105 100
382.840157 -296.430206 1169.330788 86 57 58
382.840157 -296.430206 1169.330788 86 57 58
383.871531 -341.612434 1180.268669 165 135 130
386.718607 -401.991272 1186.312008 35 23 19
384.624910 -313.374734 1174.356461 110 78 71
406.687164 215.771413 1027.401829 88 63 56
385.032630 -349.319172 1181.754684 106 87 82
385.476160 -307.744455 1173.371983 122 88 79
386.378336 -365.336561 1185.583401 174 149 144
387.443781 -353.353786 1182.512283 176 156 152
388.849974 -369.991064 1191.619587 157 132 126
387.704682 -290.129566 1182.088661 189 162 154
338.011813 -74.634701 1254.834080 148 106 83
408.851004 224.060035 1039.121628 131 95 87
391.784787 -296.328068 1178.053093 136 110 106
421.048594 224.453712 1011.765766 76 55 49
395.839405 -430.749273 1197.254658 193 155 150
387.807059 -218.265057 1175.692654 92 72 86
393.360472 -421.316671 1205.106163 210 173 167
390.136504 -222.714758 1174.792004 40 27 29
395.535517 -419.057465 1201.626873 210 173 167
398.288918 -406.404495 1196.111774 103 76 66
398.351145 -412.815094 1205.401325 202 172 159
402.812624 -394.432211 1200.995159 37 25 24
405.327845 -401.651049 1202.525139 96 71 64
401.076460 -319.170904 1199.434566 202 174 168
404.332209 -426.896000 1219.217682 167 127 127
376.241112 -144.058156 1228.914165 127 100 97
406.975842 -406.029844 1212.648582 195 162 156
403.336668 -349.776459 1214.011002 73 52 51
411.548424 -395.613217 1205.867386 98 71 63
406.326580 -249.927831 1188.468361 103 72 63
408.341026 -270.777965 1196.250534 179 155 148
408.574724 -308.700538 1206.686878 117 87 77
409.382200 -256.747794 1195.521832 113 90 82
410.182047 -263.153195 1196.024799 181 152 143
410.389090 -274.248099 1204.292583 151 126 119
416.114616 -441.235447 1227.170181 209 174 167
411.659527 -276.957107 1202.836514 101 74 70
367.261410 -35.248339 1261.376667 40 26 28
417.425537 -341.609097 1214.745331 32 23 20
413.387585 -214.550662 1198.422623 39 27 32
416.130209 -253.828263 1202.850342 155 131 118
371.080303 164.058852 1226.431179 51 35 24
417.630243 -247.952390 1203.913975 172 144 135
417.630243 -247.952390 1203.913975 172 144 135
420.116425 -332.292461 1216.379452 95 68 65
418.324757 -274.469113 1211.775112 103 71 70
379.416013 164.196610 1212.815475 51 35 24
417.712784 -312.141418 1223.691845 46 30 28
422.527933 -333.197951 1217.022610 135 115 108
424.867821 -370.042348 1222.851562 168 137 131
425.288868 -369.832373 1222.121429 168 137 131
423.876333 -252.279544 1213.280106 64 44 45
421.886444 -204.110456 1208.339119 98 76 82
424.565268 -208.416247 1209.062767 36 24 28
437.918806 -458.740425 1241.546249 121 96 83
403.825092 -110.391498 1253.346252 122 93 92
413.958359 -141.701233 1239.761829 83 65 71
413.958359 -141.701233 1239.761829 83 65 71
439.212847 -328.314805 1227.440071 88 62 54
448.869991 -174.589908 1174.874973 105 81 88
410.979319 -95.608187 1257.794189 114 87 90
410.979319 -95.608187 1257.794189 114 87 90
435.128880 -190.036595 1224.831963 36 28 31
438.499022 -205.119753 1221.156979 115 92 97
443.405962 -208.985567 1226.195431 132 104 105
445.310736 -204.678869 1224.354458 124 96 101
411.364079 99.752438 1245.085526 73 53 57
412.412548 121.654916 1244.024944 58 41 49
460.514021 -434.885359 1271.633816 203 168 162
461.027431 -476.087809 1281.406116 223 186 172
453.206730 -183.806133 1229.606628 101 78 87
457.737589 -331.406641 1257.688808 196 163 154
465.562963 -454.617453 1268.736553 123 101 87
420.316076 138.691366 1242.572880 138 110 103
435.200310 -18.225268 1253.317642 23 20 22
471.098423 224.603915 1093.073177 86 60 53
476.597691 -453.280306 1279.512978 112 92 79
445.948648 -12.178591 1252.720833 108 83 86
463.340807 -156.919897 1249.328804 48 35 38
445.253611 12.302291 1259.441471 143 115 105
470.275879 -176.501513 1247.849846 118 101 105
469.396257 -161.361599 1247.621346 109 85 94
469.831419 -152.514482 1250.992203 91 68 73
472.659636 -208.040047 1260.395622 100 72 62
445.460987 139.601290 1243.196583 129 103 97
437.765646 53.341794 1301.030445 68 46 49
481.185818 -293.647003 1276.927853 170 135 131
453.063583 148.164773 1241.796112 31 23 31
458.000374 67.252809 1251.894951 71 52 57
494.449997 -135.290182 1201.967812 91 68 73
463.460016 76.098353 1238.485718 71 52 57
463.460016 76.098353 1238.485718 71 52 57
474.007177 -116.417301 1261.148739 127 105 104
480.483103 -141.882455 1258.571053 38 24 28
480.483103 -141.882455 1258.571053 38 24 28
469.936514 11.321057 1259.943771 152 120 107
502.406693 -449.423790 1305.319309 121 94 80
481.077385 -91.387343 1265.012360 134 110 109
486.919641 -127.154005 1263.837147 38 25 28
469.905853 129.719400 1244.978046 141 113 102
475.255251 8.000805 1266.880322 28 17 19
490.540934 -147.853911 1266.120815 127 98 97
484.727192 -77.295059 1266.466713 106 82 91
470.981979 141.770184 1242.714596 125 98 92
480.383492 -7.452967 1261.201000 43 30 32
509.072781 -448.900652 1312.668705 126 98 86
482.118511 -108.129382 1302.316856 36 23 25
492.735338 -111.104810 1266.796970 38 26 28
499.063969 -221.005225 1286.531067 152 117 111
476.893902 124.319232 1248.793221 47 31 29
512.747145 -448.417091 1316.279221 121 97 82
477.690125 124.288964 1247.208500 47 31 29
488.161564 -12.323627 1261.829758 110 87 91
501.765728 -175.648892 1277.887344 183 148 137
496.977139 -94.835430 1270.281696 36 23 25
498.455572 -85.994911 1268.318748 109 85 93
510.013723 -82.340527 1240.974426 36 23 25
500.313902 -78.068352 1272.003841 37 25 27
505.473375 -156.487894 1286.043835 83 61 51
502.500629 -70.386070 1268.982601 107 85 99
502.484274 -61.565828 1271.840763 36 26 32
503.755093 -44.577765 1270.266533 38 29 34
526.657915 -446.203423 1329.740715 112 101 87
505.004692 -56.906563 1271.502113 107 85 97
494.534492 169.896078 1231.319904 47 37 46
527.436352 -423.524666 1333.022308 206 171 160
501.248550 81.759042 1251.180744 42 31 34
503.922510 78.974789 1252.613449 111 92 103
516.566133 32.885677 1238.592720 38 28 30
533.708811 -445.484543 1337.910748 106 87 71
503.167439 184.814775 1226.848602 66 52 50
517.437220 222.648573 1172.056389 101 73 67
508.822823 179.826200 1222.183704 125 104 107
508.237648 104.763877 1255.799198 123 100 99
508.822536 104.573548 1254.610538 123 100 99
538.444138 -462.205410 1356.974697 175 143 132
513.237095 63.441682 1266.044331 99 82 98
524.412537 -105.850244 1291.340160 86 63 52
524.491835 -64.622575 1287.440395 88 69 65
526.868391 -108.414352 1298.261166 189 158 143
526.553345 -89.737570 1295.541286 90 67 57
522.064066 12.409727 1279.315376 197 165 150
519.567204 73.609561 1266.850281 41 32 34
530.669498 -83.116573 1299.818134 163 134 116
532.234335 -105.467224 1305.768871 189 157 144
522.633934 220.517993 1216.660595 155 117 109
532.249212 -59.303319 1294.723511 78 58 51
532.863951 -73.057020 1300.252438 170 137 124
526.993942 45.570421 1276.154804 99 76 80
528.398609 25.457227 1279.431343 198 164 150
524.008512 117.884588 1261.211014 255 226 214
557.047129 -441.464520 1358.781719 122 98 78
527.764320 88.001466 1269.923306 192 159 146
545.862961 234.547019 1172.136593 102 74 67
565.618420 -349.425769 1370.017338 173 134 123
573.812914 -453.433084 1392.503166 118 84 66
579.641724 -457.849169 1396.138954 188 153 140
576.103783 -363.805175 1381.368256 182 148 141
546.730280 184.669185 1279.078579 154 125 121
587.844229 -452.796984 1406.853962 110 81 65
590.608454 -420.196342 1409.969902 205 171 158
594.041348 -455.265808 1413.734627 162 133 126
595.252562 -410.895872 1408.680344 211 176 167
563.088846 180.510426 1268.988419 173 142 144
599.785185 -453.163147 1418.765068 104 75 60
566.798878 189.974093 1274.761772 125 95 80
606.620216 -461.307383 1427.334499 173 140 126
600.919914 -366.305208 1406.263733 129 103 117
608.582973 -452.359629 1427.710629 107 75 60
588.939238 -148.322308 1371.949768 163 132 127
588.939238 -148.322308 1371.949768 163 132 127
611.056852 -434.697580 1415.264797 114 90 71
567.264366 186.749804 1303.971291 184 150 142
604.723835 -356.562185 1410.060787 130 104 118
608.035564 -375.493383 1416.277981 191 160 148
591.741133 -133.041489 1368.187618 142 112 106
605.066872 -329.933381 1407.685661 205 171 159
605.066872 -329.933381 1407.685661 205 171 159
570.716619 190.595829 1306.213379 98 76 73
570.054722 229.156303 1291.268730 122 99 90
607.440662 -336.405206 1411.386681 218 180 166
599.703979 -138.219368 1370.362282 157 129 120
625.917292 -448.669195 1443.271637 73 47 40
602.789068 -100.523365 1375.537205 142 108 113
616.406345 -259.536171 1410.939789 113 87 96
616.406345 -259.536171 1410.939789 113 87 96
586.747599 160.362411 1326.368713 117 94 108
625.054359 -376.268172 1452.115250 139 114 124
626.659536 -374.305367 1446.704769 139 114 124
631.379461 -408.912277 1444.057751 57 39 50
635.723066 -399.522018 1456.346798 66 43 49
593.913364 221.269774 1316.357994 55 37 29
606.773281 54.333055 1361.608028 109 79 86
645.103025 -429.526377 1448.001289 116 95 97
642.981672 -415.687847 1452.462482 110 85 101
611.246872 7.855549 1371.403408 67 51 48
632.940292 -265.070844 1420.365334 118 100 93
632.059813 -281.956792 1440.273857 50 31 27
644.792700 -411.161327 1457.435131 66 47 54
607.573414 82.034004 1358.444881 115 90 104
643.763924 -398.487115 1464.544201 61 38 45
646.961021 -407.809258 1462.077904 55 37 43
614.067936 29.598540 1371.137905 75 55 50
608.349705 114.668477 1356.509209 191 159 148
636.496925 -294.837141 1465.541458 77 47 37
623.252583 -72.426838 1396.229172 194 162 151
618.274975 11.724339 1370.945358 22 17 19
638.266563 -271.957445 1447.316456 110 88 97
638.266563 -271.957445 1447.316456 110 88 97
649.651432 -402.266932 1468.254948 54 37 48
626.322174 -59.948879 1397.309780 163 127 116
626.321220 -46.141562 1389.632320 54 40 32
652.093458 -397.127604 1472.195339 62 39 45
654.930067 -406.796885 1469.632244 52 35 40
643.267393 -243.590474 1432.396317 170 139 128
608.818197 205.910301 1338.532829 99 91 91
613.209629 155.772161 1352.274036 104 85 104
624.025726 12.098789 1385.473824 22 18 18
612.160301 179.877198 1351.611996 92 49 40
612.160301 179.877198 1351.611996 92 49 40
646.376228 -285.840869 1479.820633 95 76 84
646.376228 -285.840869 1479.820633 95 76 84
660.141230 -403.620768 1475.026035 93 80 85
629.867506 19.607115 1384.143257 140 115 107
637.808275 -92.952120 1416.228294 192 159 145
654.576826 -254.274082 1442.344189 96 77 73
635.229588 -9.989696 1398.637199 87 68 84
628.699827 84.432644 1382.468128 128 107 103
668.432283 -402.215767 1481.881714 89 76 85
630.080891 72.004324 1385.077286 109 86 81
634.874535 22.957815 1392.402649 113 91 94
669.233274 -394.839859 1488.775158 62 37 45
659.976387 -257.093883 1446.293259 76 67 67
659.976387 -257.093883 1446.293259 76 67 67
664.987373 -346.962237 1484.569263 119 96 103
648.403311 -104.844713 1423.686028 201 165 155
645.492840 -61.225593 1410.916710 137 111 117
674.583864 -411.611271 1485.667324 92 72 87
640.472555 5.776627 1402.723885 111 94 99
666.099596 -311.690331 1480.963898 58 34 41
664.438868 -276.940179 1474.730206 107 86 97
642.043257 21.995923 1397.615910 132 106 101
676.484823 -401.693106 1491.746044 88 75 87
666.105843 -285.267067 1478.686333 121 97 110
678.661823 -406.568289 1491.011524 54 39 43
643.077326 16.719250 1405.744171 33 26 27
