ply
format ascii 1.0
element vertex 1071
property float x
property float y
property float z
property uchar blue
property uchar green
property uchar red
end_header
209.686780 174.413335 1086.451721 69 58 76
-1183.767891 636.584949 1925.039482 74 48 38
-437.350225 248.475385 1494.359112 33 19 13
-505.429220 258.746338 1536.480427 149 121 104
-503.567171 262.693477 1535.147858 102 81 83
-504.145288 258.384061 1536.082363 103 85 88
298.712254 -128.195381 1062.661076 110 90 91
-504.871035 280.803728 1534.444141 110 93 96
-498.436594 257.547307 1533.278084 21 16 13
-1615.738297 635.361719 2221.214867 42 21 15
-493.276215 256.565762 1530.839634 34 18 19
-493.297386 257.277274 1530.774784 31 18 17
272.164607 -107.639575 1062.420559 85 51 35
272.164607 -107.639575 1062.420559 85 51 35
-491.921329 253.445578 1530.539989 21 16 16
-491.699171 255.483794 1530.183315 24 18 16
-491.626549 259.465742 1529.746437 25 20 17
-494.525051 276.387858 1530.310154 61 36 29
-490.365267 256.422663 1529.377651 35 25 24
-439.679527 250.749946 1496.629524 66 38 24
-492.221642 276.250815 1529.312897 157 127 109
2021.452904 -1532.132244 19.877219 75 47 48
215.929842 -48.652732 1068.404198 176 130 113
188.868403 10.265185 1078.888988 171 127 109
188.868403 10.265185 1078.888988 171 127 109
243.768334 -113.965511 1054.732990 174 130 113
248.922491 -142.278624 1042.905998 115 78 68
-616.004658 354.364443 1616.307640 55 48 61
-607.513046 332.588387 1612.802696 57 46 61
-609.559345 347.084904 1613.282967 71 43 31
-609.559345 347.084904 1613.282967 71 43 31
-604.558706 292.302489 1614.882851 23 16 14
212.288141 -81.094742 1052.272701 144 114 105
212.288141 -81.094742 1052.272701 144 114 105
-534.495354 269.875193 1565.888977 25 13 14
170.867884 -1.124584 1071.324158 35 23 24
1802.893639 -1395.496655 5.723128 145 104 92
-445.579052 242.137241 1503.022766 149 113 97
-448.927164 253.681898 1504.920006 151 121 107
-531.910133 272.038364 1564.149761 142 110 89
-529.499483 270.757747 1562.884521 34 18 19
-397.738624 216.678214 1463.348198 26 16 18
231.840730 -113.493454 1033.240414 74 48 38
-442.855215 241.632628 1501.282597 20 16 16
-529.572535 295.500803 1561.738491 55 30 24
-583.813047 288.043761 1603.491211 149 121 104
162.873960 -3.379824 1067.874622 49 46 63
-446.207285 257.141471 1503.526592 44 35 46
-579.970407 286.887670 1601.276207 103 85 88
-581.783056 322.846699 1599.648094 110 93 96
-574.885035 322.817683 1596.126652 60 35 28
-568.420076 291.217041 1593.726921 31 24 21
-435.025549 237.611341 1496.207809 21 16 16
-569.102764 284.710574 1594.889355 21 16 13
-569.908714 281.505203 1596.069622 20 14 15
-566.898918 314.759111 1591.765690 143 116 103
-188.757396 119.050324 1316.735554 97 53 39
-437.411451 252.300191 1498.043251 53 41 52
-563.104296 319.844222 1589.701557 74 46 35
-563.104296 319.844222 1589.701557 74 46 35
-564.244509 323.444176 1590.385723 76 47 33
-556.337309 277.248907 1587.899590 21 16 16
194.819808 -87.689573 1031.531143 167 133 119
133.624029 25.520882 1067.000389 154 125 108
-233.318973 188.327479 1337.953568 32 15 10
-237.500906 183.891058 1340.670300 157 116 99
-239.656401 183.969748 1341.315651 59 30 28
-368.157983 212.536120 1444.947338 45 15 18
-239.717340 184.687996 1341.264343 66 50 37
-239.717340 184.687996 1341.264343 66 50 37
-205.720472 153.013563 1302.607727 168 125 107
-521.506882 330.465770 1568.768215 141 105 84
60.445982 39.294091 1075.181675 174 129 112
-496.152782 245.432734 1554.156876 29 25 38
152.392268 -105.488884 991.259480 53 42 49
-393.629789 221.412063 1462.703609 34 22 21
154.201913 -97.803348 988.011456 162 125 108
-391.761637 217.348981 1461.050797 28 20 21
-449.203873 242.121077 1511.941528 27 17 13
-390.592766 219.611740 1459.770489 129 103 89
-389.267850 219.030237 1458.478928 38 23 23
-482.642794 236.210871 1543.856621 35 31 37
-488.378811 282.367826 1546.988201 135 102 96
123.871052 -72.174883 1004.090691 147 118 105
-409.934139 228.005147 1482.098484 46 29 26
26.051751 59.930503 1081.769085 149 121 104
31.868652 43.162501 1076.398659 102 81 83
-467.725849 236.265945 1530.630875 77 58 66
84.560454 -14.225483 1028.548908 174 130 113
-386.401606 217.946792 1454.966831 38 21 23
-385.098219 215.403032 1453.831100 76 59 46
-385.098219 215.403032 1453.831100 76 59 46
128.351676 -83.639407 984.889412 74 46 35
101.999891 -54.217166 1007.017040 61 36 29
-455.380678 228.036666 1520.311356 57 39 32
14.613385 41.666380 1081.889439 60 46 47
145.394385 -108.129430 966.192913 49 38 45
-421.633101 232.061625 1477.413845 60 46 47
-451.589155 256.503940 1515.961838 55 47 62
-375.954866 213.030052 1444.656467 22 17 16
-375.872183 212.934923 1444.590092 33 24 19
-445.789623 242.170477 1510.636902 151 116 101
-0.605681 61.406714 1090.699100 151 121 108
-187.597275 138.298512 1262.531948 151 121 108
-441.257620 225.960183 1507.373142 62 38 34
-1242.438698 919.228268 2264.651489 141 105 84
-373.496866 207.598329 1434.322071 107 80 68
-325.911713 191.649783 1384.464741 76 59 46
-135.626149 111.163795 1189.425087 107 80 68
-380.355573 216.631913 1446.180153 33 21 19
-108.858693 73.351544 1160.647678 172 129 114
-376.368666 214.121509 1441.705322 150 121 102
19.263127 -17.036201 1027.475929 156 128 114
19.263127 -17.036201 1027.475929 156 128 114
-321.948147 190.121961 1379.231262 76 59 46
-122.951877 99.518377 1171.058273 115 88 87
-341.442394 200.253415 1403.444576 46 22 25
-204.916477 131.959426 1252.082634 62 48 49
-316.459727 188.238156 1370.385742 95 73 67
-316.459727 188.238156 1370.385742 95 73 67
-304.507828 184.392679 1356.802464 76 59 46
-47.878587 20.750806 1080.770302 55 47 62
-251.287341 158.311915 1300.691509 151 116 101
-108.031118 -2.880371 1134.439182 144 105 88
-333.612299 207.329106 1388.443565 73 50 50
8.030169 -6.844538 1001.098061 169 125 110
225.626636 -263.108706 740.023375 201 143 116
-600.564289 313.670969 1697.102737 162 118 101
291.586328 -243.468928 626.513100 68 50 44
291.586328 -243.468928 626.513100 68 50 44
427.837467 -305.679035 459.702253 46 28 19
219.852901 -162.393379 704.572964 34 23 19
240.359497 -202.429533 674.435329 126 95 90
249.482131 -187.479198 662.997341 150 121 102
237.307334 -181.626868 675.479841 121 93 88
1259.398556 -584.294128 -589.893293 35 25 21
-348.568153 204.906797 1400.474739 7 2 41
1039.019394 -396.979070 -322.846770 33 24 18
100.081265 -14.833425 840.796471 100 76 80
824.869728 -323.422098 -70.995623 116 89 88
206.010222 -181.571662 702.073288 135 102 88
182.029796 -170.772076 727.333403 25 18 14
719.798708 -258.714437 32.594976 133 99 88
611.657858 -277.277231 167.475522 27 18 14
668.002558 -245.370293 89.929175 43 30 26
668.002558 -245.370293 89.929175 43 30 26
538.405800 -33.977184 243.811464 126 95 76
-202.190399 49.114791 1197.120190 138 80 64
173.908472 -184.977567 684.676027 49 26 28
196.349716 -206.465197 650.691032 81 64 50
-359.621978 199.803293 1416.022301 83 59 45
194.559002 -217.499900 648.838234 47 26 16
336.322355 -164.896262 457.811117 131 99 92
372.050142 -168.571675 407.714653 138 107 99
442.984009 -165.572083 307.032752 138 109 97
-281.400394 138.202071 1297.296715 157 116 96
377.894330 -191.535068 388.980460 116 89 75
-291.279531 166.277242 1313.149643 149 112 91
475.869179 -69.872886 257.699752 17 14 28
475.869179 -69.872886 257.699752 17 14 28
457.473135 -194.213533 275.344443 120 93 76
438.398552 -211.454225 297.953868 63 35 31
-283.986354 146.585715 1299.977207 57 31 30
469.401550 -56.862336 261.708117 82 63 64
465.469551 -48.291066 266.728401 79 61 63
454.865360 -7.157376 278.509307 93 71 68
448.993874 1.452069 286.099148 86 68 65
454.504395 7.717267 277.853155 91 71 67
426.449823 -238.353205 302.807856 50 30 24
514.366245 -214.204645 172.782266 54 31 33
538.853312 -267.605019 134.143317 128 93 75
568.818140 -97.239006 98.600537 29 19 12
414.108419 79.762447 319.553447 75 55 50
465.258217 -53.843516 239.806271 80 57 45
465.258217 -53.843516 239.806271 80 57 45
-282.475734 167.573595 1294.155216 52 45 48
517.657328 -49.916178 147.006929 50 38 27
392.670751 29.512426 325.310516 56 42 32
390.889525 45.443788 317.889810 41 35 45
189.720166 -283.200741 586.793852 111 76 65
124.711442 -236.988497 636.856699 154 112 93
-179.315865 173.587453 1134.432793 125 90 73
-935.018063 324.316621 2318.854713 23 10 8
-935.018063 324.316621 2318.854713 23 10 8
-305.704951 198.981774 1327.966595 34 30 29
-367.228341 206.062102 1405.356216 129 97 77
-5.118544 -218.954992 801.417446 93 71 62
-361.341715 208.507037 1415.257072 118 86 73
107.512641 -236.758423 622.286701 45 27 28
1019.872093 -1048.299885 -921.694088 45 29 28
-389.749360 219.991374 1463.036728 149 112 91
-378.011680 207.462502 1436.576366 17 14 28
866.888618 -951.494122 -692.417526 39 23 21
1035.805321 -721.818733 -948.324680 140 109 93
742.659760 -770.730209 -482.855034 43 28 30
1012.340546 -719.975233 -923.506832 52 30 31
-449.139547 283.282089 1566.371250 157 116 96
-1046.280575 351.844311 2544.713020 21 16 16
1022.666073 -693.066072 -943.380928 60 36 36
-451.179647 225.786400 1563.413715 20 20 20
154.572880 -306.030512 513.812065 32 16 19
-394.605422 223.441863 1471.419048 67 42 33
1049.816418 -743.596029 -1005.531216 129 95 77
1068.628216 -630.647612 -1026.814365 51 31 32
1038.607788 -700.015306 -989.817333 149 112 91
1090.159321 -610.345697 -1066.389751 49 31 33
-362.919807 201.666284 1416.704559 78 58 47
-340.972471 189.945686 1378.801346 41 28 25
-1104.509163 373.168468 2663.504791 17 15 15
1073.178768 -776.536274 -1086.510372 162 122 99
1114.097214 -635.317659 -1144.349670 41 28 25
-376.214337 212.103820 1439.906597 131 102 88
1101.803303 -628.685331 -1170.419121 36 20 18
1167.557621 -808.581924 -1314.028740 60 35 32
1167.557621 -808.581924 -1314.028740 60 35 32
1167.727757 -659.272623 -1307.278252 153 116 101
-678.343105 281.225657 1971.268272 19 17 17
-1235.302830 392.062473 3041.094208 23 18 18
-1285.002995 405.736685 3176.208496 18 17 17
-26.331037 -304.693270 645.994139 133 93 72
80.680048 -345.390534 425.014925 28 23 31
70.473576 -313.298631 442.479277 46 29 19
101.971805 -351.548243 359.604025 32 20 19
124.577105 -365.244770 307.454824 38 25 23
-1227.069855 398.932123 3191.826248 134 85 68
86.831307 -355.416203 382.322884 151 115 93
230.198812 -415.260029 79.606551 134 102 89
-1353.376102 432.581568 3462.100983 46 13 17
-1353.376102 432.581568 3462.100983 46 13 17
98.292625 -345.787406 355.703306 159 119 99
-1254.679775 402.713966 3260.161972 42 10 14
118.816650 -352.064800 307.407594 161 122 98
118.816650 -352.064800 307.407594 161 122 98
381.317854 -451.929569 -252.485561 33 25 36
-265.210819 92.297232 1188.222122 161 122 98
-486.157942 284.641075 1648.003197 41 28 25
-439.444017 256.973529 1555.887413 51 31 32
-385.476279 209.243989 1411.561012 143 110 96
-355.132675 192.185044 1392.998028 47 36 48
-344.914246 187.853241 1392.016220 45 35 46
-311.969495 173.811269 1388.911152 93 83 89
-346.489859 188.537478 1392.229080 39 32 42
-239.117360 181.059480 1374.766445 134 96 81
-239.117360 181.059480 1374.766445 134 96 81
-110.776186 158.250356 1354.113579 89 67 64
-358.988428 193.740606 1394.024944 48 40 57
-208.892846 106.754637 1381.717682 250 190 168
34.287822 107.338774 1335.280514 100 69 61
34.287822 107.338774 1335.280514 100 69 61
-350.752926 190.424013 1392.933846 47 36 46
-386.398959 193.830919 1401.596832 51 16 9
-154.565084 164.957762 1356.394005 72 62 74
-177.659631 170.067132 1359.938812 121 88 72
-147.116733 163.597214 1354.170227 110 84 75
-363.164639 194.510293 1396.072769 33 22 23
-170.023251 167.791212 1355.424213 24 16 10
-224.626350 177.429092 1366.717434 132 97 86
-359.809709 192.954171 1395.872211 135 103 93
-372.422719 196.820986 1398.927116 47 28 21
-364.069653 196.661818 1396.397305 47 36 48
-449.267435 194.350529 1421.389580 18 11 11
-352.898264 191.617489 1394.217110 39 32 42
476.688004 -185.050154 1228.656864 60 54 64
114.644182 76.278704 1279.726696 155 112 95
-369.624043 199.426901 1398.440838 45 35 42
-242.781258 179.603302 1363.109207 53 31 23
-70.858657 141.376901 1317.015266 162 118 102
-232.863736 178.175330 1360.118580 100 73 60
-232.863736 178.175330 1360.118580 100 73 60
-194.771087 171.422160 1348.475838 115 86 73
280.317640 -7.071464 1230.279541 52 45 57
-293.353891 186.727107 1376.703358 90 57 43
-370.970511 202.997613 1398.642254 253 194 173
-299.890780 187.358165 1378.522015 134 100 86
482.084990 -137.010312 1187.135124 168 125 110
-215.087819 174.835658 1352.987099 16 11 10
-377.690625 199.446368 1402.660084 154 117 101
-313.645697 183.291018 1384.305191 162 118 102
-226.868391 176.986432 1355.316830 91 79 83
574.591064 -184.951043 1153.792953 46 38 52
-234.957719 178.703153 1356.605244 20 15 10
-292.925024 186.602402 1375.174332 147 113 96
-289.121652 185.900915 1373.643780 25 15 11
-390.391469 204.083991 1407.321262 37 30 40
-283.166862 185.547757 1371.305561 84 53 39
-283.166862 185.547757 1371.305561 84 53 39
-278.575754 184.765279 1369.675064 40 27 23
-278.575754 184.765279 1369.675064 40 27 23
-291.631508 186.431015 1373.972321 135 103 93
-391.133618 208.164263 1406.991577 149 122 115
-182.316101 168.782663 1337.189484 111 83 73
334.461904 -17.722867 1183.580494 32 18 18
-387.333393 207.773495 1405.877209 162 129 119
-392.292118 210.787320 1407.115650 47 36 48
-394.679904 210.796928 1408.396149 157 124 113
1061.608887 -479.638529 991.198826 39 32 42
-384.663320 200.979710 1407.149410 152 123 110
805.531025 -303.512812 1052.083588 117 77 58
-53.007400 138.255990 1290.691090 105 74 67
-399.242830 207.549191 1411.812496 45 38 54
-402.625847 213.221049 1412.476540 48 40 57
-380.212784 204.013681 1405.543232 163 130 116
362.653971 -22.609776 1143.071842 169 125 108
1617.622185 -784.611320 768.151617 112 76 68
-64.415991 140.224445 1283.632278 43 37 52
1152.189636 -513.690948 890.601158 174 128 112
2140.885544 -1084.460163 566.926908 159 115 101
-201.793456 167.969584 1333.340454 132 100 84
-307.626843 186.648881 1379.143810 117 87 73
-415.247679 211.790371 1422.043324 27 20 21
-416.879463 213.960767 1422.905159 54 46 42
-289.428067 175.160062 1372.901344 28 21 19
-126.769149 152.190566 1299.879646 92 81 92
-517.111158 303.523946 1453.553963 253 194 173
-384.478164 201.898766 1411.397743 155 122 100
-395.904684 204.522371 1416.198349 113 103 106
-259.637117 176.853168 1354.339314 145 113 95
-234.281230 172.192478 1342.888737 62 34 27
-305.914211 187.446785 1377.395535 84 53 39
1052.819061 -288.326812 812.470150 37 30 40
-338.022923 188.478744 1392.373657 30 21 17
-297.969627 183.314812 1370.292377 157 122 102
828.859615 -192.022610 894.752502 156 121 104
2046.889305 -631.286526 360.627723 59 46 42
-579.857492 347.813559 1488.706398 168 125 99
-409.766340 201.539302 1427.978325 56 25 22
-410.354090 200.988579 1428.694534 128 97 77
-630.631304 383.430839 1517.143726 121 82 66
-630.631304 383.430839 1517.143726 121 82 66
-410.673904 200.945377 1429.058838 63 34 28
-410.941696 201.117778 1429.373837 119 92 72
-411.018085 200.985837 1429.502010 76 44 32
-410.955620 201.666999 1429.443169 132 100 79
-411.278200 201.908135 1429.860210 42 19 15
-634.630823 392.107940 1526.319599 68 39 40
-443.832684 224.030900 1446.290112 154 121 103
-443.832684 224.030900 1446.290112 154 121 103
-387.111998 208.995748 1416.829491 41 31 48
-397.756195 217.207742 1421.619797 52 47 58
-449.433947 243.496871 1447.885036 80 52 34
-2438.344383 1205.969810 2447.607422 165 128 111
-398.711991 217.000794 1423.160648 147 109 94
-437.191534 234.942651 1443.435574 72 44 32
-399.227452 208.213925 1425.218964 107 91 92
-2022.536659 772.121239 2290.335655 114 100 102
-2210.553169 858.015633 2389.787865 114 100 102
-2210.553169 858.015633 2389.787865 114 100 102
-2020.172310 1065.064812 2248.267555 96 63 48
-1996.439552 1052.198124 2237.406158 96 61 49
-388.217878 210.205340 1418.871593 106 86 88
-388.157415 212.233615 1418.544769 36 27 37
-337.558341 188.378382 1392.347717 30 21 17
-1879.699898 988.063145 2188.472176 111 93 95
-1866.017914 994.746590 2181.190491 107 91 96
-1866.017914 994.746590 2181.190491 107 91 96
-272.056580 167.509592 1355.972481 135 102 87
-388.677859 211.745787 1419.650555 70 41 29
-388.677859 211.745787 1419.650555 70 41 29
-270.548344 166.353643 1354.823589 38 27 22
-1654.526520 638.345814 2129.411316 28 20 21
-389.338279 206.267452 1421.286488 17 15 15
-458.666182 251.335502 1459.650135 42 33 44
-1943.887329 811.056995 2320.401764 111 75 64
-1559.872627 669.961739 2138.792038 118 81 69
-430.689907 238.032532 1449.412918 52 47 58
-389.201999 204.698038 1425.532818 142 112 98
-1229.922390 529.550743 1956.838226 32 22 21
-1182.481003 616.054392 1918.322945 71 43 33
-428.454161 220.534563 1451.167297 21 16 14
-1159.126282 601.784992 1910.001945 70 39 29
-1101.541901 443.704796 1891.994476 153 122 106
-431.443501 237.656784 1452.264023 76 44 31
-401.700544 221.726775 1433.788109 36 27 37
-401.567411 218.670249 1434.085560 106 86 88
-430.216265 223.489165 1451.261997 169 126 109
-1182.167625 523.849535 1950.661469 45 40 55
-1066.939926 595.621967 1859.964752 102 89 92
-337.182093 188.293183 1392.303371 30 21 17
-346.202874 190.336907 1398.055649 137 109 98
-1056.406307 569.007063 1857.594109 136 110 104
-1083.866310 614.013720 1871.395111 95 87 96
-1083.866310 614.013720 1871.395111 95 87 96
-1010.720158 405.883503 1849.196053 154 118 103
-402.101707 220.825744 1435.143757 70 41 29
-402.101707 220.825744 1435.143757 70 41 29
-402.207565 212.570357 1436.748123 17 15 15
-432.929325 239.488220 1456.986332 76 49 35
-363.373470 197.794878 1401.323318 133 102 90
-975.694466 554.836750 1823.588181 42 33 44
-316.946054 186.189735 1375.791073 59 38 39
-766.099310 426.539946 1739.839554 119 104 106
-391.981626 204.820156 1435.175419 29 19 13
-391.981626 204.820156 1435.175419 29 19 13
-761.805487 345.520520 1747.832108 43 23 20
-767.348719 370.537210 1751.084709 51 39 37
-751.089096 334.509802 1740.808868 142 106 89
-745.479107 423.322201 1729.448128 149 115 97
-745.479107 423.322201 1729.448128 149 115 97
-246.975279 156.094980 1314.783859 113 103 106
-727.050495 413.228321 1721.363831 145 115 103
-449.165583 255.093241 1487.531471 36 27 37
-449.165583 255.093241 1487.531471 36 27 37
-407.277203 217.304754 1452.803230 84 63 66
-448.272419 252.134538 1488.695431 70 41 29
-341.507554 190.730155 1397.153091 130 90 78
-392.719412 205.213284 1437.299347 30 21 13
-697.587538 412.965679 1706.594849 47 38 49
-447.242260 247.803092 1491.306591 41 37 51
-695.033121 315.116191 1722.267342 102 74 73
-523.462629 344.832993 1573.166752 154 114 91
-613.122129 240.924835 1675.278854 10 10 8
-620.904398 374.014950 1676.703453 51 37 47
-427.232552 240.864158 1484.486103 35 18 20
-611.844635 366.015887 1671.325874 64 38 29
-608.260155 367.570353 1670.347977 36 27 37
-612.281275 300.480580 1679.173279 100 78 83
-598.523092 242.169785 1667.965698 80 62 73
-610.834742 308.315682 1679.240036 96 81 84
-342.550540 189.062607 1398.028851 137 109 98
-606.196404 369.442940 1672.189713 50 43 55
-616.542625 321.465015 1686.865425 28 27 44
-340.651488 190.511703 1397.238064 130 90 78
-402.452898 208.979774 1455.195522 30 21 13
-592.963028 352.242064 1664.694977 68 39 30
-591.968155 342.023802 1666.367149 148 119 108
-583.295441 237.321496 1660.986137 49 31 27
-584.942770 262.483191 1670.043564 73 48 47
-584.942770 262.483191 1670.043564 73 48 47
-564.222765 214.380932 1652.417946 11 11 11
-535.197115 352.960467 1624.126625 75 45 42
-531.246710 350.634074 1622.671127 29 13 12
-554.199696 231.541467 1652.561760 59 20 15
-553.940344 232.460594 1652.941132 163 105 85
-553.412056 230.705953 1652.471733 158 102 78
-553.412056 230.705953 1652.471733 158 102 78
-552.594280 231.369996 1652.178764 59 21 13
-270.958138 153.822434 1310.811329 51 39 37
-367.977071 200.604534 1412.721348 29 19 13
-541.488075 231.161571 1646.500397 133 98 78
-401.309538 210.205984 1458.853340 29 19 13
-406.949997 211.661196 1466.671753 29 19 13
-535.824156 316.486669 1641.309547 145 119 101
-538.342237 289.461541 1646.683693 84 63 66
-341.460681 188.682127 1398.020363 137 109 98
-341.460681 188.682127 1398.020363 137 109 98
-527.688694 312.374806 1637.078667 113 84 75
-410.282946 227.375650 1473.263836 21 17 18
-524.937010 312.624454 1635.582161 23 18 14
-528.071833 281.108403 1640.814972 21 17 18
-523.154497 310.905147 1635.360527 138 111 91
-303.334665 164.813578 1334.502506 163 119 104
-313.644505 183.806551 1356.471539 128 97 77
-313.612127 183.472729 1356.288815 73 40 29
-313.612127 183.472729 1356.288815 73 40 29
-313.538146 183.739209 1356.039047 119 92 72
-313.507247 182.868195 1355.823326 155 117 100
-313.402462 183.090377 1355.578995 42 19 15
-325.749922 177.370107 1346.141815 22 17 14
-290.110612 175.513291 1402.489567 107 84 82
-295.937324 189.238489 1400.256920 90 69 61
-293.887758 188.259923 1400.303841 109 74 65
-293.199635 187.901354 1400.279427 34 22 26
-334.420276 181.702101 1401.494980 126 111 111
-287.431550 184.129202 1400.439548 45 32 34
-302.748895 169.912910 1403.627968 100 86 93
-288.986754 185.878360 1400.118160 111 83 76
-287.707019 185.007584 1400.156689 124 90 79
-338.049293 186.345458 1400.395775 50 27 20
-282.887340 180.276084 1400.426674 91 56 46
-289.885664 188.000059 1399.242210 37 24 22
-294.229603 168.303192 1402.596569 115 83 66
-320.026422 177.537596 1401.186943 57 45 62
-288.492870 188.304448 1398.568726 54 34 30
-277.362061 176.984632 1399.628162 148 110 94
-277.558494 179.293013 1399.213314 135 97 83
-287.915707 188.569510 1398.230362 45 27 24
-287.915707 188.569510 1398.230362 45 27 24
-278.697443 182.010984 1398.750210 77 48 42
-282.932305 185.631311 1398.369217 113 83 73
-320.071435 176.420283 1401.146698 116 99 102
-282.898331 185.627413 1398.367405 113 83 73
-287.013602 188.217247 1398.143959 128 93 76
-318.714523 169.645894 1403.100586 176 124 102
-318.714523 169.645894 1403.100586 176 124 102
-280.487466 183.962178 1398.435307 124 89 75
-279.255128 171.746421 1400.475883 149 110 95
-322.890544 170.407605 1403.362274 27 18 16
-320.740771 170.011473 1403.196239 77 48 42
-277.905250 181.948638 1398.470402 120 91 76
-275.498128 175.936925 1399.334145 142 108 93
-276.727819 180.891776 1398.470020 120 89 77
-288.319111 189.365602 1397.735596 56 35 33
-287.060237 188.867664 1397.620869 117 81 68
-275.656509 180.660272 1398.213196 61 36 33
-273.749328 178.206587 1398.356819 138 99 86
-273.253465 177.222514 1398.472595 139 103 87
-273.252463 175.445867 1398.734474 137 101 86
-271.965837 176.804554 1398.186588 92 55 43
-271.965837 176.804554 1398.186588 92 55 43
-271.976042 177.771389 1398.004246 79 49 42
-281.207514 186.435044 1397.085285 97 75 71
-350.537038 186.201406 1399.947929 173 128 112
-281.720614 186.928654 1397.027016 98 69 62
-279.155803 185.317242 1397.051430 87 68 65
-283.766651 188.392103 1396.901989 51 28 25
-270.768070 175.023770 1398.158646 84 52 44
-275.786781 183.062458 1397.054577 80 61 58
-275.822377 183.503199 1396.957397 93 69 62
-274.297929 181.916690 1397.064781 79 62 60
-281.074810 186.562133 1396.770287 28 19 16
-281.074810 186.562133 1396.770287 28 19 16
-283.757186 188.715184 1396.601200 55 33 29
-269.757771 174.643433 1397.854519 127 94 79
-279.838991 186.787212 1396.504021 96 69 60
-283.027744 189.093232 1396.082687 54 35 29
-282.418346 188.893998 1396.040535 48 30 28
-267.208147 176.899183 1396.774483 136 100 86
-271.295619 168.941104 1398.359489 40 36 48
-277.527118 187.078440 1395.851612 22 17 28
-265.423179 173.692024 1396.907711 128 94 79
-265.551972 176.533079 1396.385002 98 59 50
-265.551972 176.533079 1396.385002 98 59 50
-264.382029 175.129998 1396.317005 88 52 44
-264.613891 176.901305 1396.006203 140 104 90
-278.085089 187.833631 1395.310593 36 19 17
-268.489170 167.539871 1397.872162 94 83 85
-263.589382 174.500287 1396.210098 100 64 51
-315.806961 167.088401 1401.746845 115 80 66
-288.991642 163.734400 1400.275040 51 39 46
-262.803793 171.533930 1396.336842 96 87 89
-262.875462 171.160030 1396.370506 100 92 96
-272.601652 185.594511 1394.484711 92 72 68
-233.551621 180.706918 1392.557907 105 81 71
-267.906880 183.067536 1394.306183 100 78 71
-266.119266 182.295573 1394.191742 81 61 57
-265.011883 181.127238 1394.249058 99 80 74
-265.530324 165.264916 1396.964836 172 128 109
-263.272929 179.805529 1394.220066 88 68 64
-314.523387 174.596465 1398.742962 55 36 27
-271.265149 186.045325 1393.819904 106 77 69
-325.206065 183.136642 1397.935009 74 44 37
-278.417277 162.007868 1398.526001 32 24 23
-255.982280 172.549891 1394.308662 102 64 52
-310.737705 180.853391 1397.059250 55 35 27
-276.576710 189.124370 1393.576241 75 48 39
-314.105129 174.144542 1398.534393 126 111 111
-314.105129 174.144542 1398.534393 126 111 111
-269.400525 185.851228 1393.231106 92 64 54
-273.764992 159.877181 1397.867966 96 81 83
-258.098054 164.331913 1395.229912 100 85 90
-256.783962 178.560841 1392.609882 28 22 28
-255.517626 164.362347 1394.807911 39 34 47
-254.974270 166.514099 1394.146729 54 35 26
-254.974270 166.514099 1394.146729 54 35 26
-259.352994 181.367517 1392.170048 78 59 52
-248.286009 172.810686 1392.211246 106 71 57
-250.278139 176.175451 1391.436195 125 94 81
-252.559352 179.494536 1390.867424 39 29 35
-258.061409 183.928430 1390.526962 109 75 69
-246.810174 175.943160 1390.420723 58 36 34
-253.046155 181.025136 1390.252495 101 66 57
-243.053269 167.799175 1391.048908 96 62 54
-242.923737 166.891086 1391.168404 135 96 82
-242.923737 166.891086 1391.168404 135 96 82
-249.220037 178.718686 1389.999390 130 91 76
-245.620608 176.681900 1389.696312 115 82 68
-241.129303 168.738747 1390.314770 100 64 56
-253.480530 182.096279 1389.694500 112 83 75
-245.723486 161.725485 1391.992188 143 104 90
-240.404010 166.989112 1390.341759 151 114 98
-240.640783 165.961981 1390.496254 143 109 94
-244.297099 176.397562 1389.168453 122 92 80
-239.503741 168.073452 1389.836693 150 112 96
-259.858012 185.934734 1389.364147 98 72 62
-237.110329 167.419612 1389.225483 99 61 50
-240.048480 174.114811 1388.482285 73 45 40
-236.183167 166.993237 1388.916397 122 91 77
-237.253428 163.605523 1389.502621 46 37 44
-234.567118 169.721866 1387.945366 82 49 40
-235.005260 165.518367 1388.625336 86 75 86
-234.710288 171.418524 1387.406731 134 101 88
-238.845873 175.112605 1387.346554 13 14 22
-239.167333 158.782744 1389.990997 36 28 40
-249.541044 181.986189 1387.666798 107 82 75
-233.941340 163.843560 1388.321114 65 50 60
-231.852937 166.017938 1387.646961 132 97 81
-243.097401 178.548825 1387.128162 85 66 61
-241.934848 177.749169 1387.066364 95 73 67
-238.034654 158.087468 1389.684486 88 79 88
-231.885839 170.106995 1386.773014 133 98 83
-237.677908 157.623875 1389.601612 91 61 57
-233.481574 163.105547 1387.997627 143 110 105
-252.533221 184.185314 1387.345314 87 63 55
-231.378460 170.777595 1386.423779 75 48 44
-455.399418 213.331985 1406.711578 111 85 79
-228.614450 166.371751 1386.517429 131 98 84
-231.281471 172.070348 1385.917854 128 94 79
-230.360508 163.476169 1386.992264 72 47 40
-230.504155 158.874536 1387.699986 129 95 81
-226.652956 165.929580 1385.918331 80 49 40
-226.652956 165.929580 1385.918331 80 49 40
-230.906439 159.735489 1387.416553 69 44 37
-232.308316 157.237065 1387.820625 40 31 41
-238.560939 178.527582 1385.386276 89 68 58
-227.305698 171.579278 1384.639359 73 46 42
-227.309322 172.059548 1384.371948 123 90 77
-222.549725 166.754556 1384.325886 133 99 84
-224.192953 169.444668 1384.140396 65 40 40
-235.785317 178.155017 1384.455490 79 61 54
-235.785317 178.155017 1384.455490 79 61 54
-304.964638 178.819001 1393.087769 38 26 22
-304.923034 178.790200 1393.082237 38 26 22
-228.429723 154.188192 1386.880112 165 123 108
-221.576953 168.747580 1383.437252 116 85 77
-216.505075 162.826622 1382.983780 131 95 81
-219.060397 167.686081 1382.616329 117 89 84
-221.828198 171.179497 1382.510090 100 72 67
-241.558051 182.359350 1383.770847 100 79 71
-239.331365 181.446886 1383.510971 94 70 64
-230.197597 174.625194 1383.045387 28 23 35
-235.159540 179.563010 1383.050632 101 76 66
-215.888834 166.514671 1381.840324 86 56 49
-230.122757 176.702499 1382.521534 88 69 61
-230.844426 177.511549 1382.526207 89 66 58
-228.361988 175.693750 1382.373905 94 69 65
-222.369623 152.746403 1385.014820 98 68 59
-234.653401 180.225527 1382.704163 20 13 10
-216.337633 168.198347 1381.547070 40 28 30
-214.460158 164.859426 1381.709862 124 94 81
-218.693495 155.347168 1383.768272 62 52 61
-226.732969 151.777065 1385.702801 175 131 113
-346.723366 186.648369 1397.654247 152 119 105
-217.464972 170.362568 1380.998611 90 72 70
-344.964671 183.998871 1397.229767 83 46 40
-210.753083 163.567960 1380.687237 43 30 31
-210.029840 161.056316 1380.900860 140 103 88
-307.652140 168.966401 1394.154549 121 81 63
-207.521129 161.780167 1379.899311 89 58 53
-212.121511 168.327773 1379.675007 133 98 84
-209.576511 158.471382 1380.570984 55 35 27
-225.060773 176.632452 1380.427170 103 77 67
-651.471043 268.953276 1431.638527 100 85 90
-342.522573 186.434460 1396.307373 35 19 17
-342.511559 186.368001 1396.256733 149 120 102
-342.511559 186.368001 1396.256733 149 120 102
-216.607404 171.823347 1379.305458 17 17 19
-216.607404 171.823347 1379.305458 17 17 19
-327.291155 175.819385 1395.458698 101 90 98
-327.291155 175.819385 1395.458698 101 90 98
-299.905252 156.088364 1395.400143 87 56 46
-204.126024 148.586833 1379.849148 40 30 40
-304.794550 169.494045 1392.476177 105 69 53
-326.754856 177.293932 1394.803715 119 78 62
-198.202646 144.939411 1377.517986 80 54 50
-292.513871 162.542486 1390.910721 121 81 63
-192.065668 166.451573 1372.116756 147 111 94
-336.796713 179.385471 1395.546913 52 39 42
-336.771917 179.371357 1395.536327 52 39 42
-179.724884 145.147860 1371.827984 173 129 112
-179.724884 145.147860 1371.827984 173 129 112
-178.815746 138.559198 1370.720863 100 68 61
-343.130302 182.230830 1395.667553 173 128 112
-173.029613 137.654507 1368.587208 54 45 57
-161.482942 148.012376 1364.486122 49 41 54
-396.536660 193.117225 1404.836750 41 18 19
-301.317787 173.653162 1388.303852 46 36 48
-326.863337 180.986881 1392.147255 35 24 20
-326.863337 180.986881 1392.147255 35 24 20
-326.744413 182.798469 1391.724300 163 127 109
-337.555265 184.836197 1393.688107 149 120 102
-337.555265 184.836197 1393.688107 149 120 102
-337.543678 183.840466 1393.680000 34 18 19
-343.268728 186.335742 1394.527054 20 16 13
-299.523354 174.414670 1386.643982 35 26 22
-220.303059 131.435955 1376.253319 141 106 97
-328.001785 177.007782 1392.252254 114 72 57
-328.001785 177.007782 1392.252254 114 72 57
-343.161702 186.343873 1394.260693 112 98 100
-326.197624 180.832732 1391.151333 100 84 92
-326.226974 180.460334 1391.207314 95 81 92
-270.897079 142.189336 1385.746479 135 95 77
-326.087165 181.408358 1390.911102 149 119 103
-319.968963 187.312567 1388.551426 147 116 99
-268.813348 140.770996 1384.869385 138 96 78
-325.928688 180.435288 1390.742779 37 25 22
-181.967974 121.759188 1365.981579 117 77 59
-296.758986 174.441373 1385.389233 44 28 27
-280.234504 168.047714 1381.459713 44 28 27
-320.522237 181.109273 1389.195442 163 127 109
-417.050743 221.953464 1410.641479 92 58 49
-212.626958 126.502931 1372.251987 50 39 51
-343.065000 185.118437 1393.853951 27 17 17
-343.005800 186.097181 1393.678188 20 15 12
-293.967390 160.298944 1385.071373 47 35 47
-340.069103 185.168076 1392.918682 147 114 100
-322.028804 173.323607 1389.570904 162 123 104
-335.710788 179.493427 1392.210484 83 46 40
-321.692824 173.902512 1389.157391 119 77 58
-335.610652 179.591882 1391.907215 44 35 47
-321.666813 171.387708 1389.031887 59 48 58
-361.016369 191.741610 1401.138687 162 120 103
-379.747725 192.735457 1401.952362 29 16 10
-73.645073 143.382120 1320.207405 112 78 70
-15.735978 83.259290 1309.563446 106 73 64
-288.164496 182.787728 1376.032162 121 89 76
-335.466957 183.433151 1390.020180 143 111 98
8.728629 78.817242 1298.937321 46 36 48
-184.843254 109.593296 1355.229187 66 55 65
-322.700906 178.942037 1386.334705 160 122 104
-322.700906 178.942037 1386.334705 160 122 104
-300.485563 174.855864 1383.583355 44 28 27
38.726458 73.695701 1286.504555 44 28 27
-322.405291 179.797924 1385.877800 149 120 102
-287.546968 184.794390 1374.585915 147 116 99
-335.120583 183.355033 1389.385128 45 20 20
-288.657093 172.275639 1376.039410 45 27 24
-335.039115 183.147311 1389.353180 45 20 20
-322.521710 178.600991 1385.888386 34 18 19
-174.381208 104.776657 1350.185108 66 61 70
-322.405529 178.391826 1385.705948 27 20 17
-322.405529 178.391826 1385.705948 27 20 17
-201.057625 170.056486 1348.375130 114 85 72
-299.256134 162.597215 1380.111885 162 123 104
-328.223920 191.864812 1388.697338 27 15 13
-322.226572 179.352796 1385.296631 142 115 102
-367.231917 192.894864 1402.904701 108 98 100
-322.186852 177.732694 1385.312080 98 91 95
105.225182 45.833012 1260.861397 100 91 100
88.139153 78.330535 1262.465096 108 98 100
-322.066045 178.061831 1385.177708 103 88 93
-361.199641 192.734480 1401.061249 253 198 174
-282.158732 157.071018 1374.272919 134 116 114
-282.392836 152.649176 1374.919128 48 38 45
126.293218 65.966380 1246.637917 27 20 17
-334.811139 182.929862 1388.482761 27 20 20
-321.786451 178.709292 1384.549141 16 16 15
-280.819654 155.209839 1373.277473 157 125 110
-280.819654 155.209839 1373.277473 157 125 110
-280.411124 155.789113 1372.809124 114 72 57
-280.023265 155.587709 1372.648621 114 72 57
-315.143490 177.900374 1382.072258 149 120 102
-321.598673 178.196251 1384.193802 161 123 107
-280.372405 153.196323 1372.774220 120 80 61
-321.627688 177.501857 1384.155560 49 37 37
163.571882 27.506346 1233.017159 68 52 49
-271.274519 181.157005 1366.661549 37 28 26
-320.789862 172.242558 1384.116745 83 46 40
28.374746 28.619891 1278.562069 113 72 57
-283.856010 164.863753 1371.384525 47 40 53
204.078531 -18.951179 1207.889175 176 131 114
440.454006 -45.781678 1114.396286 172 128 111
-193.776608 160.663486 1337.028027 116 80 71
-155.165398 157.722819 1316.003323 45 26 19
-341.984606 181.685269 1389.687157 54 46 58
884.778023 -226.345992 928.205967 55 46 59
-318.230152 184.969449 1383.633327 135 102 80
384.830260 -2.447822 1109.503269 48 43 55
340.328288 9.109959 1126.651478 48 43 55
-317.958641 175.732613 1378.953075 24 18 18
-143.739140 154.698646 1308.099461 120 87 68
-466.030645 223.035121 1436.720467 44 28 27
-275.080729 164.735365 1361.387348 149 120 102
-275.080729 164.735365 1361.387348 149 120 102
-275.584435 162.684262 1361.803436 158 120 103
-317.817235 175.992334 1378.488541 152 116 100
-431.211138 203.269076 1429.841328 135 100 80
2281.271744 -713.528490 321.675205 52 44 58
1866.939163 -501.973534 476.730394 109 93 98
-317.439127 177.928245 1377.222729 112 98 100
-273.850632 161.719501 1359.458828 104 89 95
-317.480111 175.651026 1377.437305 105 89 94
-273.736525 160.681772 1359.498596 103 88 93
-544.525528 273.684788 1474.398422 157 125 110
-197.326195 88.441485 1335.962772 140 102 80
-521.637583 264.985299 1465.459538 112 71 57
-272.561884 161.070490 1357.750130 148 107 92
-440.445328 215.448856 1429.115963 44 28 27
-310.005999 174.335921 1373.267078 45 20 20
-235.834169 148.326409 1340.918732 34 18 19
-670.180845 244.826460 1539.709091 135 103 80
-461.146688 218.212938 1439.248276 27 19 15
-271.579719 161.286104 1355.912876 18 17 17
-271.451497 161.671770 1355.578518 24 18 19
-161.873603 46.877187 1307.170486 253 198 174
-161.873603 46.877187 1307.170486 253 198 174
-154.612350 43.736196 1303.174973 169 123 98
-157.086551 42.523241 1304.158783 99 38 34
-165.391505 45.585153 1308.194828 254 198 176
-1312.036324 699.596739 1850.856972 118 79 69
-1312.036324 699.596739 1850.856972 118 79 69
-325.931954 172.089601 1377.034187 39 32 45
-261.470580 157.325113 1343.816948 143 111 98
-405.116320 190.844786 1417.861462 8 6 5
-1667.633438 868.937397 2047.810364 85 58 43
-262.193418 137.158942 1345.057011 157 116 103
-262.193418 137.158942 1345.057011 157 116 103
-260.754895 154.073691 1342.941856 24 18 18
-410.683060 205.559373 1420.219898 44 28 27
-265.641499 159.759700 1344.624138 45 20 20
-1414.835262 517.794085 1949.128914 149 120 102
-1414.835262 517.794085 1949.128914 149 120 102
-1414.835262 517.794085 1949.128914 149 120 102
29.467690 2.036845 1194.099998 83 46 40
-1423.934937 523.806763 1956.676865 35 17 18
-285.902095 162.958014 1354.812908 34 17 18
-261.216807 135.381722 1342.933273 80 50 39
-1586.025143 832.232189 2025.460052 90 60 45
-260.669327 159.189093 1340.777683 20 16 13
-261.643171 135.814905 1341.978264 100 87 89
-260.968947 134.487879 1341.660023 101 87 93
-259.838557 132.925785 1340.516090 41 31 45
-265.799356 158.404338 1342.028046 34 15 19
-260.026002 133.932996 1339.785480 80 51 39
-406.018782 205.250144 1418.880177 44 28 27
-208.030558 140.406966 1308.365154 32 20 19
-1501.343346 790.989351 2016.752625 156 116 102
-1501.343346 790.989351 2016.752625 156 116 102
-618.730402 273.821044 1538.956451 149 120 102
-1393.557930 754.584885 1961.483955 57 52 64
-1393.557930 754.584885 1961.483955 57 52 64
-1083.924389 425.738955 1805.017281 39 21 23
-258.367825 152.276337 1335.986423 34 17 18
-1414.568424 755.174112 1977.230644 79 49 36
-1277.626514 523.054409 1915.841866 26 20 21
-258.123517 130.852103 1336.203384 38 31 42
-258.269334 137.663877 1335.659695 153 123 111
-1255.729961 688.642120 1898.171234 49 43 54
-1196.877766 509.956026 1877.470398 48 41 53
-1196.877766 509.956026 1877.470398 48 41 53
-1179.615211 653.843117 1861.967850 113 76 64
-403.081226 203.705120 1419.906425 125 104 102
-145.492244 113.270664 1255.525875 147 117 99
-962.336159 404.669237 1782.113457 26 16 16
-1124.573135 583.881044 1878.932381 67 42 33
-994.370842 431.818628 1803.088379 24 18 18
-1068.610477 596.265125 1843.129730 53 46 58
-396.800756 202.522254 1416.138458 44 28 27
-1123.192024 614.662695 1882.563019 162 124 111
-1108.887005 593.670034 1874.410057 155 123 103
-1108.887005 593.670034 1874.410057 155 123 103
-1108.887005 593.670034 1874.410057 155 123 103
-394.216371 204.804802 1419.703960 80 42 32
189.160061 2.315018 1031.093025 32 18 16
-453.959131 224.427152 1454.041481 34 18 19
-411.909151 206.013584 1426.477814 45 27 24
-1092.231369 604.686117 1868.881226 80 50 39
-947.530270 416.143322 1783.391380 22 17 16
-1063.089371 564.352417 1854.463005 89 57 40
-1042.678547 546.266937 1847.871017 118 104 108
-667.772484 208.402276 1611.196518 73 63 76
-1038.829994 579.842043 1851.388550 80 51 39
-1033.966732 565.889359 1849.280930 76 47 35
-872.099590 368.729162 1746.557617 36 20 22
-912.343788 406.020212 1773.998642 22 17 15
-998.576069 525.838995 1830.301857 75 41 26
-394.006801 201.695728 1415.307426 44 28 27
-576.377392 264.844632 1543.037510 32 20 19
-997.831440 567.117643 1832.293320 50 45 57
-998.525143 531.810427 1834.861374 82 49 39
-405.987310 204.271960 1423.924065 163 127 109
-574.958849 264.645815 1543.445206 45 20 20
-575.524426 263.729119 1543.930817 42 18 23
-405.936480 204.376507 1424.035358 45 27 24
-427.740860 224.380565 1438.899803 84 55 40
-451.584196 223.185182 1456.511116 18 17 17
-975.451183 526.033401 1824.118996 78 48 29
-653.369999 212.161803 1608.386421 166 108 87
-680.160856 220.656252 1628.265572 143 103 84
-646.113682 209.329033 1604.923248 22 16 10
-847.190762 392.871070 1744.231415 45 37 51
-847.190762 392.871070 1744.231415 45 37 51
-663.587761 217.602205 1618.121719 138 98 80
-660.659552 217.933917 1617.080688 100 59 47
-546.440506 319.318104 1527.506256 85 61 55
96.592879 -190.782309 1048.635769 132 88 69
-388.615561 202.437234 1415.593147 35 24 20
-422.395515 213.826060 1444.553089 26 16 16
-422.266579 215.259981 1444.534588 24 18 18
-421.445942 223.831296 1443.897533 155 123 103
-386.617303 199.510050 1413.109303 44 28 27
-424.111414 213.382339 1446.669388 42 18 23
-422.157621 214.809370 1445.028114 152 116 100
-406.886387 204.373789 1434.736729 32 18 16
-404.794121 203.580570 1432.084274 33 20 16
-403.543520 203.357363 1431.256199 32 20 19
-422.211456 212.240601 1445.798492 20 16 13
-422.165918 213.071537 1445.905113 28 20 18
-422.133112 213.028455 1445.913506 34 21 16
-399.780393 207.891965 1428.926659 106 91 95
-399.780393 207.891965 1428.926659 106 91 95
-399.453783 207.559514 1429.172421 21 16 15
-401.665783 206.254816 1428.010845 148 107 92
-466.035509 279.194212 1488.505936 132 88 69
-414.704609 210.612845 1440.579700 42 18 23
-414.704609 210.612845 1440.579700 42 18 23
-421.189737 226.592946 1446.773052 81 52 38
-413.510323 210.337567 1439.794350 45 20 20
-412.417841 209.748340 1438.767433 33 20 16
-401.797867 203.117514 1430.840778 45 20 20
-401.849270 202.936578 1430.897236 42 18 23
-375.002527 194.643545 1403.156853 44 36 48
-409.143639 208.570385 1436.184692 26 16 16
-372.755980 193.730652 1400.944233 82 53 43
-373.219967 194.914293 1402.329063 125 84 68
-374.170113 192.758632 1402.503681 131 88 70
-374.196196 192.745292 1402.516174 131 88 70
-382.691956 197.430575 1411.290264 162 120 103
-382.614970 196.865606 1411.321735 162 120 103
-374.444747 192.649174 1402.685356 29 16 10
-374.444747 192.649174 1402.685356 29 16 10
-382.399845 196.499050 1411.230183 162 120 103
-374.515867 192.459857 1402.796841 130 89 74
-395.438981 206.870961 1428.212166 43 20 22
-398.128152 206.124949 1429.365158 24 18 18
-382.362223 198.251617 1411.843681 44 28 27
-398.100328 205.870152 1429.694366 152 116 100
-392.620158 205.417895 1425.332546 28 19 19
-390.368176 202.259851 1421.074486 34 18 19
-390.342832 202.368689 1421.165085 27 20 17
-393.763971 200.933552 1426.407433 42 18 23
-392.671466 199.640441 1426.221371 161 124 105
-395.028591 204.866147 1427.561378 25 19 16
-398.009229 205.072546 1431.190014 32 18 16
-395.147514 203.744435 1427.784443 33 20 16
-398.306060 205.351639 1431.599903 43 20 22
-388.572812 201.633430 1420.143604 34 18 19
-393.369341 201.129627 1427.367306 32 18 16
-388.945055 206.992030 1424.802971 159 125 106
-388.945055 206.992030 1424.802971 159 125 106
-388.904619 206.794810 1424.781132 159 125 106
-382.903099 201.091862 1416.760063 27 20 17
-387.743974 202.120328 1422.953033 25 19 16
-385.283184 199.808204 1419.435215 29 20 20
-383.967185 200.117111 1417.838192 27 20 17
-387.294722 206.094146 1423.700047 159 125 106
-386.264968 201.526642 1422.149563 145 114 94
-135.063887 189.293993 1470.931244 88 50 37
-138.337576 192.190719 1469.301796 103 79 55
-133.934987 188.238835 1471.020317 73 45 34
-133.934987 188.238835 1471.020317 73 45 34
-134.790874 189.180911 1470.346642 84 47 38
-125.046062 183.083010 1474.071312 97 68 50
-133.958685 188.477075 1470.381260 125 83 62
-127.147400 184.254086 1473.136330 72 58 39
-134.511709 189.019287 1469.991302 83 46 38
-134.511709 189.019287 1469.991302 83 46 38
-138.084364 192.012048 1468.113708 75 72 52
-138.084364 192.012048 1468.113708 75 72 52
-132.722914 187.764919 1470.208359 47 39 25
-182.308495 121.482098 1470.588970 52 45 56
-182.308495 121.482098 1470.588970 52 45 56
-229.680133 147.187245 1451.336575 152 111 90
-133.206058 188.579035 1469.247246 74 41 27
-131.961536 187.397087 1469.284725 45 20 10
-183.137310 124.203968 1468.645573 150 103 72
-132.656550 187.941885 1468.629456 131 77 60
-130.979037 186.634815 1469.145298 98 59 42
-131.809568 187.323046 1468.459702 43 13 8
-299.175906 177.720571 1423.832321 92 63 50
-333.967447 184.183276 1418.037987 45 33 46
-180.332029 131.107318 1464.225483 152 111 90
-166.580927 143.341649 1463.910103 46 36 50
-700.215530 321.536660 1292.812061 50 44 51
-174.867713 130.504060 1463.492203 45 33 46
-163.999569 170.504141 1455.810070 145 100 83
-163.999569 170.504141 1455.810070 145 100 83
-165.508819 174.840987 1453.455448 94 72 81
-354.279375 194.269931 1406.476688 11 4 3
-165.551341 172.918987 1453.185940 95 79 81
-184.500718 150.736701 1454.175282 105 74 65
-177.500486 147.075939 1449.263287 48 40 49
-756.011772 272.249222 1315.226460 139 102 87
-756.011772 272.249222 1315.226460 139 102 87
-176.111591 174.667525 1443.368816 10 10 10
-934.018230 311.792636 1271.761513 139 102 87
-184.009933 135.188174 1448.546124 67 55 63
-679.996252 309.849858 1323.654652 52 45 56
-179.401088 149.624479 1445.474052 113 79 73
-189.608586 136.297989 1445.341110 143 105 94
-181.722498 159.650397 1440.118885 62 51 60
-396.675229 199.747145 1402.810478 45 33 46
-619.620752 255.115247 1353.358459 46 36 50
-618.570423 254.869413 1353.622913 46 36 50
-196.936178 137.403166 1440.318298 135 99 86
-197.610354 136.028755 1440.346813 142 103 92
-175.240815 190.149653 1433.370781 95 71 77
-655.712652 284.527731 1342.835712 45 33 46
-183.229911 170.667017 1435.305595 148 104 86
-204.163623 134.255075 1434.960747 148 105 87
-238.318110 137.176943 1429.084110 7 6 6
-191.410744 182.890642 1425.807667 21 14 14
-186.444008 186.347246 1425.625038 46 36 41
-192.114055 183.720398 1425.081062 70 52 45
-193.741953 182.091808 1425.070953 65 45 38
-234.631562 187.706590 1419.031620 112 83 74
-194.567358 177.044213 1425.511074 27 17 18
-195.776057 180.339372 1424.474144 89 63 55
-195.332313 181.030881 1424.347687 18 11 10
-197.272015 180.494761 1423.672009 98 71 61
-209.691119 156.004500 1426.441574 47 37 50
-209.691119 156.004500 1426.441574 47 37 50
-194.021451 183.683658 1423.058891 69 56 59
-194.021451 183.683658 1423.058891 69 56 59
-209.422207 155.948818 1426.462746 47 37 50
-195.623183 182.137179 1423.166561 74 55 63
-216.870904 144.608390 1427.488613 20 12 12
-217.409849 143.291187 1427.548218 22 12 8
-199.105060 178.518128 1423.198986 67 52 58
-199.105060 178.518128 1423.198986 67 52 58
-252.798963 171.006107 1419.191742 115 87 74
-217.537189 144.303107 1427.100277 36 20 18
-212.799525 157.755065 1425.158691 17 13 14
-219.912243 143.374503 1426.745987 147 107 92
-219.912243 143.374503 1426.745987 147 107 92
-213.120961 162.201011 1424.154663 26 20 20
-220.412517 147.323394 1425.778198 42 26 19
-221.127415 146.123099 1425.827312 21 13 13
-221.480179 144.801247 1425.923729 19 11 10
-222.197843 143.545961 1425.959206 40 23 17
-215.644312 162.012851 1423.430347 140 109 95
-197.016978 185.709882 1420.761013 112 83 74
-222.555637 145.933867 1425.199318 141 109 97
-216.120481 160.274529 1423.293304 110 78 72
-201.046228 183.953738 1419.977951 98 74 69
-221.757078 145.686305 1424.669170 90 77 80
-221.757078 145.686305 1424.669170 90 77 80
-205.337858 180.187595 1420.033360 97 73 66
-196.684074 186.322653 1419.635773 37 28 38
-206.258607 179.407156 1420.031357 88 65 60
-207.886457 177.982938 1420.045185 85 65 60
-218.737030 159.273875 1422.315025 23 13 11
-220.287395 161.290872 1421.485329 136 98 81
-227.682543 146.383142 1423.151207 149 109 92
-227.682543 146.383142 1423.151207 149 109 92
-221.577191 159.955108 1421.082687 21 14 14
-229.764819 146.542609 1422.466660 37 20 15
-223.831654 163.833165 1420.004177 132 99 89
-226.338649 144.410467 1422.945499 59 46 48
-229.990673 149.963200 1421.650505 140 108 95
-226.397324 160.364842 1419.553852 40 36 51
-208.319736 182.330239 1416.254425 36 14 8
-241.166615 149.299502 1417.363834 156 113 96
-224.162030 182.609546 1411.783218 102 77 73
-225.490475 181.882155 1411.825562 103 76 71
-226.605487 181.154466 1411.871433 98 71 65
-227.707982 180.461955 1411.904907 94 71 66
-259.999752 138.122523 1415.941525 255 200 179
-230.503964 179.360044 1410.774708 63 39 40
-230.503964 179.360044 1410.774708 63 39 40
-250.548506 147.739148 1414.088345 31 28 36
-259.526944 136.798346 1414.936256 162 109 73
-259.200120 135.048962 1413.864613 190 137 97
-255.660629 148.543668 1412.049580 46 29 25
-256.791639 149.335229 1411.456966 165 124 106
-246.831656 172.231781 1407.773209 28 13 12
-247.855592 171.668339 1407.850552 26 14 11
-255.108833 166.232049 1408.687305 119 91 83
-247.369695 171.051276 1407.839966 37 31 32
-247.369695 171.051276 1407.839966 37 31 32
-244.263768 173.820019 1407.258511 122 89 74
-245.562410 173.218894 1407.337093 113 85 72
-245.562410 173.218894 1407.337093 113 85 72
-246.842599 172.648001 1407.427406 94 72 63
-246.842599 172.648001 1407.427406 94 72 63
-259.267998 161.133921 1409.125423 132 101 88
-240.373778 174.571693 1406.927490 134 96 81
-261.212230 155.985880 1409.645462 136 109 98
-245.416427 173.653913 1406.972885 28 13 10
-255.820465 167.168367 1408.023548 110 81 70
-247.824526 172.499990 1407.138824 26 14 11
-249.041224 171.991551 1407.209873 25 13 12
