ply
format ascii 1.0
element vertex 1049
property float x
property float y
property float z
property uchar blue
property uchar green
property uchar red
end_header
-802.832603 -442.994118 1937.089539 110 81 78
-766.966677 155.482602 1876.599121 75 49 42
-802.076149 -425.559521 1937.490273 174 133 123
-745.236301 345.343709 1849.674034 64 34 28
-795.993519 -406.050205 1934.549332 138 95 81
-795.993519 -406.050205 1934.549332 138 95 81
-802.154541 -485.250378 1946.211433 125 79 63
-802.723598 -480.131102 1946.578407 106 72 59
-796.661997 -428.662586 1938.571358 128 83 68
2574.575233 400.927210 -1364.887333 88 58 48
4555.336761 1348.585320 -3687.786865 226 176 160
-749.550867 215.336514 1873.551941 194 150 128
-749.550867 215.336514 1873.551941 194 150 128
-749.044657 215.373039 1873.219490 194 150 128
-756.183815 -50.380254 1892.499924 135 88 73
-755.847597 -53.277552 1893.117714 185 142 130
-790.746546 -441.476727 1945.605087 195 151 136
-790.746546 -441.476727 1945.605087 195 151 136
-742.811489 90.332890 1874.312210 143 98 85
-729.209042 -138.725340 1868.446159 45 29 17
-747.156382 40.526706 1882.773590 185 139 121
-741.268826 60.807192 1880.797005 121 82 68
-741.268826 60.807192 1880.797005 121 82 68
-787.415791 -467.934370 1952.016068 162 127 116
-784.679794 -444.522858 1948.889732 131 93 77
-783.071375 -462.046146 1952.947998 67 48 60
-733.858633 69.585437 1883.616447 139 95 76
-773.815346 -277.655911 1943.545723 143 97 85
-736.249113 196.461797 1884.095764 89 62 50
-776.583481 -448.989391 1954.673767 137 94 79
-778.550816 -475.227690 1958.036423 150 114 105
4210.032654 1264.921570 -3462.721634 59 34 28
-692.171955 404.277134 1844.123840 35 28 44
-771.146727 -524.425125 1970.035553 137 92 85
-729.744244 -55.713457 1909.300041 176 134 120
-688.673353 413.103056 1847.652054 160 119 105
-714.197588 125.446570 1889.436722 63 57 70
-755.184412 -403.103447 1960.383797 124 83 74
-687.863922 367.065144 1855.431747 176 134 116
-686.950874 379.322219 1853.964043 176 134 114
-723.327589 -54.947311 1913.688469 179 138 124
-709.815979 122.857571 1891.213608 48 36 57
-260.634375 -88.401014 1545.327377 144 100 87
4780.073929 1905.660248 -4261.858368 139 87 66
-756.423044 -508.657503 1978.310585 204 159 142
639.100122 281.954741 433.142042 78 34 37
-2220.156479 15.846264 3720.348740 69 53 45
-743.518877 -410.276079 1969.854355 189 142 125
3927.581406 1203.437710 -3283.775711 62 38 32
-682.865906 289.097548 1874.796486 97 67 60
-739.993382 -436.444950 1974.843597 123 85 72
-695.692348 67.956793 1906.441307 134 92 81
-741.974163 -508.787727 1986.310768 142 97 80
-735.134172 -434.446383 1977.813721 79 59 65
-681.872225 201.978445 1890.616226 101 69 62
-730.872869 -421.645880 1977.557373 71 55 68
-688.092041 94.451272 1906.488037 149 105 92
-686.617947 73.814601 1911.132622 97 63 53
-694.138050 -49.429479 1929.133606 122 83 73
-677.898836 159.143198 1901.764107 104 72 64
-229.294586 -108.706141 1545.908928 149 126 130
-717.646456 -366.856360 1976.380348 44 38 50
-721.346664 -434.340906 1984.602737 184 139 123
-676.097059 74.861133 1916.077995 92 58 52
-722.129250 -506.566095 1998.953438 149 102 91
-714.719486 -406.385088 1985.818672 154 110 95
-714.719486 -406.385088 1985.818672 154 110 95
-721.011829 -513.542604 1999.774361 144 100 87
-687.164688 -85.970008 1940.648079 177 133 122
-711.585093 -395.366526 1984.738350 107 97 104
-700.100899 -407.394648 1994.156456 126 80 65
-695.339298 -148.814642 1977.720261 168 131 116
-692.302704 -404.999685 1998.769379 130 86 69
-686.002541 -405.507517 2002.921677 151 103 86
-690.107393 -557.723045 2020.815086 149 126 130
-688.481140 -550.871181 2023.666954 41 25 33
-640.587616 47.575086 1944.026375 183 137 123
-667.296743 -399.900532 2009.855843 149 106 92
-618.890858 258.902121 1915.471649 181 136 121
-623.245907 208.477736 1923.925591 102 73 62
-623.203039 83.168864 1942.979050 111 80 68
-635.372972 -70.910776 1969.335556 159 122 115
-640.405321 -152.615929 1981.495476 109 75 60
-623.408508 50.851321 1952.649879 101 63 49
-622.831678 -9.397274 1965.164948 160 146 140
-620.129251 -5.996276 1966.704369 57 49 63
-618.706322 -1.689264 1965.768242 176 139 136
-618.706322 -1.689264 1965.768242 176 139 136
-641.220284 -320.879865 2014.008331 129 89 73
-608.863640 -42.672822 1979.644203 90 65 67
-605.282640 -18.135430 1977.723503 143 137 141
-575.486612 393.581915 1917.330170 173 130 114
-607.540464 -127.272666 1995.488930 93 68 72
-608.194399 -230.264139 2015.811729 88 64 69
-579.962397 169.971550 1957.981873 103 75 66
-569.650841 313.201833 1936.329269 102 67 62
-531.442785 355.037904 1950.619888 178 133 119
-531.297541 268.416524 1966.668129 183 138 124
-521.328831 268.518543 1973.008728 181 139 122
-536.421871 -34.578574 2022.206879 192 149 133
-520.627022 105.651343 2009.659576 160 121 111
-520.823812 39.376634 2020.349312 198 153 132
-515.701532 95.624697 2012.528992 114 82 69
-536.595964 -436.398983 2098.012924 183 140 129
-487.618685 402.875090 1968.074036 173 130 115
-504.568863 -5.633579 2036.781502 160 146 145
-488.159466 230.695844 2000.615501 184 140 122
-477.494144 143.314385 2023.588753 187 144 127
-462.958002 404.601860 1982.162476 172 129 111
-460.837555 398.849702 1984.690094 90 61 59
-461.200237 313.578320 2001.766396 92 66 62
-469.664097 144.144344 2031.124115 185 141 126
-467.611122 144.234884 2029.114342 185 141 126
-462.828684 225.784063 2018.160820 95 66 63
-458.606720 94.408882 2044.945908 136 98 86
-466.977262 -333.766770 2118.022537 162 116 99
-458.538675 -342.053556 2109.431839 167 122 106
-467.101145 -342.307997 2119.613838 161 116 102
-467.534781 -351.947236 2121.807671 167 122 106
-467.534781 -351.947236 2121.807671 167 122 106
-453.476191 -23.609827 2070.176506 129 90 80
-454.274511 -43.471208 2073.514748 138 99 86
-450.128984 -26.477098 2072.037506 187 146 136
-444.467878 98.287493 2051.836777 167 130 118
-458.521128 -373.913503 2132.156181 163 116 99
-917.382812 403.661251 2811.567879 85 56 46
-447.154713 -384.180689 2139.691162 131 90 75
-447.154713 -384.180689 2139.691162 131 90 75
-448.196554 -422.320795 2145.013428 153 108 99
-449.591494 -524.898529 2159.084702 51 33 42
-444.335508 -530.988836 2162.733841 149 126 130
-431.959963 234.525752 2067.040253 54 36 28
-439.981890 -386.787271 2142.316628 112 75 62
-424.205971 -18.161198 2086.117172 140 99 84
-435.744429 -398.261404 2148.115158 185 141 128
-410.417080 312.516546 2041.722298 93 59 47
-581.914520 270.869565 2358.546448 95 59 46
-419.043922 294.324207 2056.797600 93 59 47
-431.498528 -371.500015 2146.104622 188 145 130
-435.682011 -234.688330 2142.122078 145 96 75
-432.921743 -474.714327 2163.349342 138 96 86
-539.726782 267.533302 2299.181175 187 146 129
-427.060652 -363.261962 2148.008919 100 90 102
-408.967829 133.817041 2068.756676 119 82 70
-423.352575 -361.898541 2151.377678 171 137 131
-408.996677 -16.329332 2095.558548 137 96 86
-403.260660 100.659132 2077.182961 194 150 133
531.836510 223.373079 654.789257 79 39 38
-400.289297 88.802743 2081.314278 107 71 60
-400.289297 88.802743 2081.314278 107 71 60
-403.424835 -15.655212 2099.007034 137 98 89
-13.476606 -77.866739 1417.031479 90 68 74
-414.059162 -375.102997 2156.977654 162 138 138
-413.916302 -77.796257 2126.148415 168 122 115
-413.916302 -77.796257 2126.148415 168 122 115
593.646812 138.385773 457.278872 51 25 25
-416.218376 -476.358604 2172.481537 192 151 133
-413.960695 -389.515042 2159.521675 104 73 72
-402.074814 -23.954292 2101.198959 134 98 90
-402.074814 -23.954292 2101.198959 134 98 90
-412.241316 -383.493185 2159.394073 174 149 148
-414.907598 -251.970530 2158.720589 231 183 166
-385.594440 313.871574 2053.831482 88 58 48
16.910902 213.324642 1368.389797 83 57 41
-399.335265 242.855978 2083.534622 35 23 16
-408.586597 -475.955820 2177.860260 189 145 131
-391.074276 82.020956 2088.075256 110 75 62
-403.821802 -363.912606 2161.325836 140 94 83
-405.056524 -435.645866 2171.811295 113 76 63
-403.231573 -386.517072 2165.732193 126 84 69
-405.729008 -76.463801 2137.490654 190 147 135
-404.434347 -478.432178 2179.419327 155 111 95
-389.518785 260.621309 2077.420044 142 104 97
-401.765537 -474.652290 2180.683136 190 145 133
113.335896 142.177296 1269.096375 64 42 33
-398.200917 -427.585220 2175.090599 114 76 64
-398.877454 -478.364325 2183.608437 147 101 92
-397.283936 -399.641657 2172.352600 194 151 135
-396.605277 -399.188495 2171.529007 194 151 135
-393.547964 -412.430334 2175.395393 163 129 126
-391.221428 -403.092337 2174.876595 136 96 87
-390.308499 -370.708346 2170.354080 203 159 142
-378.372574 341.363978 2071.774483 189 152 127
-374.397945 121.320844 2091.036034 187 143 129
644.902372 279.186320 291.019106 150 101 91
-377.498913 337.556410 2072.627258 48 22 14
-389.156699 -419.348621 2178.565025 70 52 73
-397.086573 -309.330440 2180.252457 41 28 26
-377.105379 308.347535 2078.438377 86 53 42
-387.481642 -405.438089 2177.893639 201 158 143
-375.390267 9.656022 2110.414696 130 131 137
-372.345328 72.237599 2101.243401 174 131 118
-384.355736 -361.826372 2172.530556 120 85 71
-373.743463 355.622530 2077.251434 41 30 25
-384.458947 -421.479273 2185.038185 93 64 72
-369.005489 89.413184 2100.258255 159 125 114
-380.882907 -435.570526 2185.682487 118 81 72
-366.530323 87.659013 2101.861191 119 81 72
-368.462086 316.862416 2081.352425 221 151 132
-367.169523 4.644525 2115.567970 114 78 69
-364.283562 133.589756 2096.486282 94 65 61
-367.581105 -9.808110 2120.036125 138 94 83
-364.143300 86.510366 2103.927040 170 130 118
-363.698721 326.172566 2083.356285 41 23 16
-362.308121 -6.021057 2121.002007 145 101 92
-375.979090 -227.852225 2175.199699 144 92 72
-358.379149 87.876272 2106.809425 120 87 75
-360.578895 312.450385 2087.858582 53 23 15
134.282660 143.991935 1257.679844 64 42 33
-367.061567 -413.114405 2192.363739 183 141 128
-353.132653 107.338262 2106.226730 170 131 117
-356.971931 304.405880 2091.316032 194 153 135
-356.971931 304.405880 2091.316032 194 153 135
-370.579004 -258.571696 2185.397148 179 123 100
-353.242278 340.125299 2086.336517 81 51 38
-353.242278 340.125299 2086.336517 81 51 38
-349.335790 140.866208 2103.465652 172 131 118
15.127653 -85.235280 1427.388859 113 76 64
-351.892257 308.646441 2090.475273 92 55 45
-348.494983 108.166182 2109.538460 115 81 69
660.569715 414.961910 176.269257 157 105 84
-357.515693 -406.328297 2193.813515 189 147 131
0.746592 -174.034250 1459.120178 167 115 91
-358.281851 -415.728712 2197.207451 75 62 84
-344.545770 107.758367 2112.063408 166 127 117
-345.086932 -13.045506 2134.000397 177 137 124
-345.086932 -13.045506 2134.000397 177 137 124
-340.747786 112.429214 2113.317299 125 86 72
700.433874 415.604734 133.773434 46 28 22
-8.636119 -250.450301 1932.501030 149 92 71
-341.350031 -392.222571 2202.331924 87 63 72
-333.027792 -7.785974 2139.320755 130 88 82
-337.870836 -380.596232 2202.935028 84 58 80
-330.007172 -11.199222 2142.476845 177 135 124
-336.188531 -368.367910 2201.740265 102 73 77
-327.771139 -7.239991 2141.938591 136 92 86
-327.693629 -15.239346 2144.191742 133 94 88
-319.061112 166.723692 2122.331238 52 41 60
-384.391594 -171.736157 2274.768829 207 164 148
-315.873122 -329.019475 2209.836388 70 53 73
-309.837914 -374.159336 2217.767906 140 100 91
-295.619059 243.709302 2115.860176 162 122 110
-305.455065 -366.019583 2218.839264 118 75 64
-297.834706 115.451229 2138.723183 142 108 99
-303.072572 -380.655408 2222.896194 147 105 95
-293.653893 121.526504 2139.191055 80 59 55
-291.281605 236.539984 2119.670677 160 120 110
-299.543548 -477.098370 2240.626526 201 156 142
-290.404844 105.407631 2141.872025 70 51 46
-294.853616 -363.231587 2224.299240 138 92 83
-294.899702 -506.406879 2248.311806 50 34 44
-294.899702 -506.406879 2248.311806 50 34 44
-288.395929 -491.343164 2245.326996 196 150 137
-288.497043 -364.561844 2228.221321 157 106 92
-289.252186 -509.791708 2251.215744 192 149 136
-281.208801 -267.140675 2216.227341 158 114 102
-281.298113 -267.257357 2216.402054 158 114 102
-244.137216 448.732805 2053.186989 114 100 120
-169.539106 18.799119 1996.793175 41 27 23
-208.787060 -65.443772 2126.511192 47 40 51
-244.862151 -222.288108 2232.643509 112 79 74
-241.731286 -260.213637 2237.236595 162 179 186
-241.680837 -283.042479 2240.699387 138 147 148
-241.291070 -311.138630 2244.765282 138 150 150
-241.291070 -311.138630 2244.765282 138 150 150
2576.974487 2284.132576 -5568.774796 104 114 121
-236.183071 -305.118179 2248.614311 31 25 26
-236.104202 -240.325713 2238.246727 125 122 133
-234.382010 -231.018758 2234.196472 139 149 153
-235.477996 -269.193220 2243.476295 136 137 145
-230.338645 -246.252203 2240.015602 42 30 32
-217.197537 -313.477850 2255.830574 36 27 28
-210.371470 -258.975196 2258.401489 77 59 66
-208.829451 -282.677484 2259.790993 72 78 83
-205.376911 -285.217547 2259.226608 150 160 164
-205.376911 -285.217547 2259.226608 150 160 164
-202.181172 -415.044928 2285.324097 125 94 94
-196.336830 -424.757957 2287.423706 152 113 128
-189.139140 -280.725908 2262.191010 110 125 130
-193.718052 -483.353233 2309.831238 76 47 44
-186.071849 -409.025717 2289.269829 78 57 82
-186.701035 -489.482975 2307.719421 47 27 40
-184.166050 -274.064565 2265.407372 148 157 164
-183.335888 -278.782344 2264.911652 107 115 121
-183.691764 -405.503893 2290.100288 91 65 92
-181.595874 -268.770456 2264.462280 128 142 149
-177.121210 -426.256752 2300.876999 137 150 152
-172.205508 -277.976727 2270.059204 108 116 124
-172.205508 -277.976727 2270.059204 108 116 124
-170.825601 -284.137511 2269.501495 153 150 156
-173.415220 -429.746246 2303.979111 62 54 60
-172.597766 -420.755053 2302.404022 178 145 133
-168.175018 -496.225929 2305.798912 152 124 130
-173.800969 -378.590775 2302.087021 79 44 39
-91.735351 132.995307 2006.774139 115 103 131
-168.037593 -375.027180 2304.178047 161 122 109
-82.664740 52.396828 2002.920341 117 143 150
-161.979210 -277.690578 2274.407768 107 117 122
-161.187208 -458.937836 2309.958267 148 107 101
-159.595835 -488.864708 2313.830948 112 68 90
-159.754694 -418.341494 2300.778770 240 189 172
-158.046699 -263.888526 2273.890305 87 90 102
-77.889776 58.899719 2003.915596 38 49 60
-159.125972 -383.701801 2306.071472 72 45 41
-77.528596 66.517448 2003.696251 105 124 130
-77.528596 66.517448 2003.696251 105 124 130
-154.876411 -485.332680 2316.239738 90 49 36
-79.131007 102.917457 2003.369141 107 125 132
-154.456723 -425.994349 2307.761383 208 166 154
-152.907455 -250.722098 2273.197365 141 125 135
-150.829673 -485.570145 2316.573143 202 162 147
-150.474894 -271.631551 2277.522659 131 140 148
-151.672018 -393.657422 2310.456848 64 59 58
-152.880585 -400.776720 2316.775703 153 166 166
-148.650968 -254.904985 2277.660370 65 56 76
-146.214426 -273.751545 2281.738091 33 36 41
-148.182714 -378.710079 2317.125702 115 74 67
-141.380477 -261.492610 2283.140945 160 173 178
-143.019187 -255.964303 2286.574364 78 72 91
-136.068714 -463.651514 2315.599251 120 80 67
-142.241502 -440.616035 2328.332329 156 123 112
-61.733800 -80.003685 2040.224075 40 35 44
-141.851997 -446.659088 2335.533524 72 42 39
-140.368342 -408.011341 2325.000763 178 137 124
-134.037185 -278.005648 2283.251381 87 104 110
-140.333629 -390.145588 2323.636246 84 46 36
-134.929299 -455.497742 2328.021622 38 28 27
-137.486732 -398.720813 2324.400711 157 130 123
-137.486732 -398.720813 2324.400711 157 130 123
-138.686073 -259.039307 2302.089119 115 130 137
-138.686073 -259.039307 2302.089119 115 130 137
-134.497702 -405.032778 2329.545403 97 52 47
-132.198465 -366.122937 2320.222664 153 131 125
-129.431331 -361.764431 2325.409698 102 69 61
-127.953899 -416.156530 2335.993958 95 55 44
-769.425201 -1071.062183 4591.843033 41 42 61
-124.905908 -434.885883 2341.972542 133 97 91
-118.241429 -366.009903 2324.877548 153 154 157
-118.162811 -382.371378 2329.862976 135 144 145
-119.317818 -432.179308 2344.235802 70 40 39
-119.155264 -389.576983 2335.617828 47 36 39
-119.155264 -389.576983 2335.617828 47 36 39
-120.605242 -266.411853 2314.549637 72 76 83
-110.767663 -451.407528 2338.841629 27 22 26
-106.874228 -323.922682 2299.011993 64 57 69
-122.568917 -202.691889 2326.138496 100 62 54
-117.660785 -213.653660 2331.657791 94 53 44
-106.932509 -401.339340 2342.837524 86 78 93
-106.202602 -358.418393 2332.008743 107 107 117
-108.456874 -270.951128 2322.423935 81 80 91
-101.423705 -350.997210 2336.783981 65 60 78
-96.711564 -454.721594 2351.823807 33 22 25
-107.103026 -200.626159 2334.764671 223 176 159
-93.889427 -439.148474 2351.665688 52 55 60
-95.343995 -348.222327 2342.516518 106 113 118
-93.598187 -389.347863 2355.148697 145 125 140
-98.409408 -211.048269 2330.842209 129 82 63
-98.409408 -211.048269 2330.842209 129 82 63
-90.430200 -347.892666 2340.858078 141 141 148
-86.349833 -410.152340 2350.560379 127 88 109
-86.511022 -421.134329 2354.389381 162 171 182
-89.972901 -276.288080 2334.985733 105 93 111
-89.403391 -294.240808 2339.228249 96 95 100
-81.462210 -386.560035 2348.613930 137 149 153
-82.657522 -294.021416 2338.176537 99 103 110
-80.402267 -352.588320 2350.759697 92 88 96
-1670.905113 -3953.224945 10269.541931 158 98 78
-79.684287 -348.118615 2352.832031 45 46 48
-77.813286 -382.485795 2355.122948 73 45 38
-88.161433 -213.669372 2349.803543 85 45 43
-85.716742 -197.219038 2340.173721 147 112 103
-80.396610 -540.577221 2406.615067 217 171 154
-76.842493 -358.679485 2352.876282 74 74 85
-74.894768 -339.853382 2345.283699 112 122 128
-71.777618 -417.258739 2359.228706 80 50 44
-72.313148 -383.965707 2357.543945 122 115 121
-83.523613 -234.239626 2359.929657 115 68 55
-69.231087 -452.791309 2367.284966 146 165 164
-69.231087 -452.791309 2367.284966 146 165 164
-80.280024 -197.750580 2341.925430 192 153 137
-72.429121 -354.674578 2354.715919 93 108 122
-68.564039 -432.535887 2361.781883 61 44 53
-72.245532 -354.125786 2354.353142 86 98 111
-69.863367 -364.009809 2356.962395 140 150 159
-66.559136 -374.406552 2359.440231 33 36 44
-64.266407 -427.684689 2365.623856 159 130 126
-64.266407 -427.684689 2365.623856 159 130 126
-64.404732 -412.850237 2363.367081 182 194 193
-72.507519 -249.777460 2364.051247 198 154 139
-61.649287 -310.818315 2345.346642 78 89 89
-61.632454 -385.257363 2370.335388 136 143 145
-58.221507 -356.989384 2362.498474 125 138 141
-56.778133 -362.682247 2361.343193 123 133 134
-57.720792 -440.420580 2386.630630 114 119 126
-62.336779 -236.564660 2364.992714 133 87 66
-50.070822 -387.077761 2371.972656 41 37 49
-59.531754 -261.397266 2374.302292 172 135 118
-49.245107 -368.965912 2369.287491 59 56 62
-45.543405 -391.253424 2368.654251 131 148 147
-46.906182 -434.251833 2385.656166 105 71 64
-48.997474 -298.386717 2359.389687 95 107 116
-39.379179 -470.333910 2373.414612 39 28 25
-41.815028 -318.766475 2346.459961 53 57 63
-43.192303 -401.721716 2379.925346 129 139 143
-43.903518 -435.969734 2392.699242 138 109 105
-50.570476 -212.701797 2359.606552 124 93 89
-50.570476 -212.701797 2359.606552 124 93 89
-41.124424 -423.953152 2386.314774 69 66 69
-41.649652 -411.632299 2384.947395 61 57 62
-41.649652 -411.632299 2384.947395 61 57 62
-51.494527 -261.444068 2380.685043 188 145 130
-38.800284 -414.844894 2386.582565 154 167 164
-38.800284 -414.844894 2386.582565 154 167 164
-31.111559 -483.561563 2379.167175 141 93 83
-46.204945 -192.833912 2357.961273 220 170 152
-37.904471 -306.478643 2361.011887 144 112 101
-48.561949 -179.715729 2364.727592 139 102 94
-28.246507 -479.404354 2382.470512 218 170 155
-32.836673 -352.004576 2378.459549 89 67 65
-33.138004 -296.867442 2367.040253 114 124 130
-40.545806 -212.793756 2371.409798 152 106 94
-25.486171 -390.762234 2388.869286 117 124 127
-24.703847 -420.575094 2395.319176 74 78 87
-34.458092 -254.004431 2387.373161 96 54 43
-23.881792 -398.596525 2390.219879 46 37 35
-24.012080 -446.471739 2407.957840 23 20 23
-19.787745 -336.666107 2365.277100 58 44 44
-32.808459 -246.387959 2389.152527 205 158 141
-30.058390 -197.559404 2366.739845 206 167 150
-17.073010 -402.313852 2393.084717 75 50 44
-23.886319 -192.154443 2375.466728 191 149 136
-22.784419 -206.036806 2385.441017 87 44 40
-22.362795 -217.126775 2388.929176 133 85 68
-22.362795 -217.126775 2388.929176 133 85 68
-22.313084 -217.605662 2389.410400 133 85 68
-22.313084 -217.605662 2389.410400 133 85 68
3.718678 186.659884 2181.050682 255 255 255
-6.493833 -412.966633 2398.649025 90 62 54
-3.014428 -472.427177 2408.837509 178 195 189
-6.895430 -349.386740 2389.068413 157 176 182
-6.895430 -349.386740 2389.068413 157 176 182
-3.645657 -340.354133 2394.467926 119 135 138
-808.582783 -2905.141449 8294.260406 147 96 78
-8.123911 -226.673532 2399.297523 209 166 145
7.005680 -455.256653 2417.120552 95 99 99
4.494618 -492.548275 2444.681740 215 167 148
3.969250 -284.974265 2392.827225 93 97 101
-1.252577 -192.080069 2398.915863 185 138 125
12.631166 -418.139505 2414.274406 84 75 78
14.064704 -394.258976 2412.664604 174 123 95
20.454241 -445.852375 2419.476700 112 88 88
16.607527 -355.559707 2416.728020 172 134 124
19.107167 -334.415817 2414.962769 113 122 125
21.730092 -335.716867 2407.399368 66 67 84
28.303206 -430.007076 2416.960526 73 68 77
26.804984 -381.374454 2414.491463 132 129 137
15.257901 -183.270371 2404.633141 204 160 146
14.984199 -164.647675 2404.261398 95 73 75
27.346125 -343.239164 2411.886787 134 142 150
33.779633 -392.929673 2427.508354 73 53 55
38.011140 -519.157887 2457.468414 200 155 138
38.968056 -427.470160 2427.453995 44 53 56
37.363404 -228.482628 2403.996086 42 40 56
37.363404 -228.482628 2403.996086 42 40 56
43.209088 -330.432367 2419.545364 121 125 135
45.169130 -373.555326 2426.327705 39 44 47
50.007427 -425.243092 2446.969795 83 45 41
50.007427 -425.243092 2446.969795 83 45 41
48.682186 -364.876437 2434.839058 95 68 68
-97.138804 -118.404019 3125.686646 111 78 81
65.555942 -280.222440 2400.487328 34 35 57
69.846475 -408.074570 2437.784004 195 162 149
62.424237 -240.815902 2413.667488 105 116 119
-17.009026 -103.905499 2777.344322 163 130 115
-17.009026 -103.905499 2777.344322 163 130 115
62.737113 -236.170959 2412.982941 116 128 130
69.112617 -402.345943 2448.026848 119 83 87
72.356629 -362.417626 2426.153946 214 168 146
72.274303 -388.167691 2439.163971 216 172 157
80.379242 -309.416628 2384.264946 110 100 105
73.016328 -377.147245 2448.760796 115 134 134
-7.349252 -125.310028 2786.721992 163 126 113
82.324177 -55.138165 2307.859230 167 131 115
43.076658 -57.874548 2507.012558 93 75 74
75.946182 -250.085282 2412.511253 26 31 36
87.802768 -104.313171 2329.028511 146 125 133
85.826969 -445.836782 2461.959076 98 75 90
81.528497 -245.240974 2413.182449 116 111 112
83.332157 -225.170732 2411.626625 133 119 130
92.378247 -451.161003 2463.175392 144 111 123
94.052714 -42.557964 2311.221504 100 77 68
94.052714 -42.557964 2311.221504 100 77 68
89.586747 -400.306082 2462.231255 147 111 125
86.946881 -350.241971 2456.702805 102 62 60
86.946881 -350.241971 2456.702805 102 62 60
87.123257 -221.188331 2413.303947 102 79 86
93.673354 -407.321882 2466.367340 85 51 73
100.398993 -463.725853 2477.238083 94 53 74
100.398993 -463.725853 2477.238083 94 53 74
138.013411 -60.833806 2139.342308 39 37 58
98.384881 -343.582940 2460.790253 109 72 62
98.432225 -339.432907 2461.636353 166 128 119
108.034730 -65.528619 2324.351883 89 71 67
103.140223 -363.481808 2459.367561 157 115 132
99.626756 -232.058215 2428.213310 159 171 169
99.626756 -232.058215 2428.213310 159 171 169
107.135177 -372.639489 2471.668816 87 47 56
109.253991 -384.258604 2470.281410 48 34 35
111.986339 -398.218727 2477.806854 109 68 73
80.981690 458.380222 2297.145844 61 42 37
83.912772 378.988433 2316.019630 129 96 83
112.513649 -255.400801 2441.225433 82 59 65
93.460131 326.766872 2329.351234 119 88 77
93.436283 326.497841 2329.710388 119 88 77
95.288002 380.273747 2316.325188 132 97 84
122.571003 -244.367504 2456.942940 114 124 125
101.953816 330.326581 2319.445229 61 41 38
125.913572 -241.303444 2458.731651 33 29 32
137.324893 -291.386986 2445.237923 121 112 121
143.306983 -1.185738 2346.174622 111 78 81
150.603712 -224.757624 2471.031761 128 131 132
157.593572 -367.921782 2504.209137 124 81 69
149.913073 -199.322271 2466.610336 121 117 118
182.636893 -13.026866 2183.213425 163 126 113
153.748798 -189.999843 2464.197540 125 126 129
153.748798 -189.999843 2464.197540 125 126 129
157.616723 -230.479670 2474.618340 88 61 53
157.389998 -143.583715 2461.115837 127 89 76
185.650039 -265.618896 2420.883751 179 134 123
200.179148 -13.301863 2199.428940 160 126 112
200.179148 -13.301863 2199.428940 160 126 112
187.277257 -313.276720 2512.353897 147 105 93
187.277257 -313.276720 2512.353897 147 105 93
204.427600 134.928739 2178.549957 77 89 91
204.427600 134.928739 2178.549957 77 89 91
211.724472 98.666728 2173.882866 90 109 114
218.054795 -26.787046 2207.172585 44 39 71
208.005953 -466.454697 2551.720810 136 96 94
213.678527 103.812742 2179.780006 15 17 22
218.712616 96.046281 2182.666397 23 27 33
224.647641 -26.714304 2217.837334 44 39 70
207.667279 -299.920940 2522.590446 195 151 135
219.193745 109.618855 2177.474594 97 111 113
-119.729829 -1144.890022 4904.230499 138 89 73
225.807571 95.080048 2182.229614 23 26 36
224.542665 129.087090 2178.723526 39 48 59
-74.514556 -1004.529572 4593.798828 138 89 73
228.484488 92.169631 2181.511116 76 97 106
228.909874 88.748407 2181.075859 28 40 50
226.438403 136.504757 2180.127335 112 121 121
219.110155 -280.912185 2521.007919 79 57 78
230.654001 95.648742 2183.528519 23 27 38
234.713745 100.148952 2189.038467 18 22 30
234.713745 100.148952 2189.038467 18 22 30
234.520245 111.887240 2190.448189 103 111 116
227.649307 -267.738056 2528.168106 68 47 67
230.627823 -302.486348 2538.415527 153 106 97
237.979150 103.200114 2190.682411 93 122 130
229.608679 -253.032184 2539.195061 21 12 15
229.944944 -206.068134 2527.331734 138 89 73
236.700654 -290.931296 2538.319206 85 64 77
236.700654 -290.931296 2538.319206 85 64 77
367.902613 132.218564 1703.662682 62 37 26
367.902613 132.218564 1703.662682 62 37 26
247.139239 -327.020311 2554.479408 182 142 128
208.207965 -344.420743 3115.931129 154 97 75
234.673619 91.343421 2383.263206 149 115 104
211.000085 -727.650881 3076.570511 148 92 69
220.386672 213.112688 2422.923660 47 38 57
253.269219 -328.417778 2555.816460 71 67 83
259.685922 -402.857304 2576.221848 143 95 82
245.740676 -220.488763 2560.284042 196 150 130
258.795285 -338.137388 2561.466026 80 66 78
220.300317 -329.311967 3110.655403 145 88 75
380.297089 164.187634 1130.838299 80 47 33
262.683916 -289.979029 2554.827309 158 111 99
277.315235 -466.296434 2601.116943 233 178 157
269.969416 -344.117045 2567.084694 66 48 66
-101.339960 -1529.983044 6082.954025 147 88 75
252.511835 -9.296679 2513.304520 78 34 37
284.153032 -498.191404 2631.294441 148 88 73
277.723765 -340.580082 2573.943901 183 140 125
276.914430 -329.215789 2572.471046 182 140 122
281.554365 -335.721898 2576.426888 135 97 83
288.116837 -427.575159 2597.601509 175 131 117
283.883166 -353.316474 2581.018448 204 158 136
271.098018 -174.093926 2562.231255 214 172 148
291.966462 -414.151144 2596.114731 129 88 76
286.930823 -323.881364 2578.865242 196 150 132
286.930823 -323.881364 2578.865242 196 150 132
284.514022 -249.569368 2583.577156 26 12 15
284.047055 -213.447094 2575.795746 165 109 90
363.578176 214.376903 1221.617222 95 56 38
287.794900 75.244880 2262.889290 167 132 116
-36.487871 -1494.965172 6202.037811 145 88 75
298.355961 -347.546601 2586.061287 164 127 114
273.372269 -0.862560 2525.379944 150 101 91
273.372269 -0.862560 2525.379944 150 101 91
300.524664 -342.010355 2587.866592 68 52 68
305.024076 -393.130565 2600.422668 134 92 81
267.842388 189.923584 2467.160988 184 137 120
364.141178 227.420831 1237.231636 95 59 46
311.336613 -417.756319 2602.176476 176 132 115
310.140276 -403.331947 2605.848312 136 88 78
261.558986 270.283604 2482.631302 67 41 34
306.349134 -319.700313 2586.984253 198 150 130
274.134159 148.360264 2482.802391 170 127 110
309.199238 -348.287177 2594.236183 115 74 62
272.984695 210.146570 2457.144165 100 62 56
262.272882 344.203043 2450.079346 29 21 22
282.561684 85.323656 2494.268417 162 125 114
282.682943 85.463065 2493.335533 162 125 114
275.752401 207.694674 2465.454292 117 83 75
374.083304 221.444631 1138.411236 64 42 33
313.510180 -305.664515 2588.626099 128 86 71
286.627531 76.291621 2499.485779 66 61 79
286.627531 76.291621 2499.485779 66 61 79
288.702631 83.890533 2496.221161 81 66 74
288.329387 89.437056 2496.532822 76 57 68
325.681686 -421.475315 2625.964165 181 136 118
327.498507 -397.244906 2614.760399 183 140 124
322.419238 -324.210429 2598.716736 104 77 79
285.937595 195.795500 2475.528336 182 136 118
316.121006 -238.791442 2588.102150 64 46 48
316.121006 -238.791442 2588.102150 64 46 48
320.430565 -280.937099 2586.720467 128 85 70
323.761129 -307.163763 2595.792770 101 76 80
332.008648 -401.550198 2619.890594 144 99 88
325.701857 -295.954013 2593.927002 91 75 85
325.701857 -295.954013 2593.927002 91 75 85
302.127385 64.523816 2512.918282 131 88 76
338.839746 -409.470034 2625.974846 137 94 81
386.092329 -73.537463 2100.922394 131 93 85
324.754238 -174.816012 2603.996468 136 86 68
325.471187 -173.088837 2597.616386 136 86 68
305.417919 172.726190 2489.433670 180 134 117
354.412889 -439.117813 2643.067169 109 87 101
304.659486 215.422797 2494.056320 93 58 46
305.250478 215.448070 2490.050316 93 58 46
305.250478 215.448070 2490.050316 93 58 46
354.102421 -399.784446 2634.720421 201 152 132
324.003935 64.826149 2522.180367 174 132 114
360.635996 -410.086393 2638.410759 136 90 82
355.408454 -323.002458 2618.945885 128 84 74
379.080224 241.809511 1212.430096 221 151 132
365.382004 -433.791924 2643.679619 170 129 111
356.429577 -315.177488 2611.772537 176 136 114
319.980741 186.110532 2497.257423 105 67 56
322.441602 168.463445 2500.288963 174 130 115
300.183702 474.479294 2449.864006 36 19 11
303.205585 489.917612 2449.261856 60 19 20
340.964484 53.585315 2536.694336 131 93 85
340.964484 53.585315 2536.694336 131 93 85
367.709279 -281.073189 2618.273735 160 113 99
340.615249 82.549769 2531.083679 136 90 84
334.810162 167.260587 2504.009247 104 72 62
320.130873 390.059781 2476.036835 66 46 33
349.729824 71.083736 2534.044456 131 89 80
356.560016 25.410667 2555.443382 74 59 73
439.380360 83.295768 1435.401249 73 49 52
359.090042 64.856976 2543.123817 190 144 125
363.888526 41.635007 2553.502274 184 138 119
341.210485 338.493514 2491.428757 87 66 74
365.212035 51.393002 2552.149010 133 87 81
367.296934 46.370608 2557.202339 190 144 127
398.209548 -264.579701 2635.336113 144 95 90
365.760183 193.837893 2517.052460 88 61 47
369.557762 185.598135 2521.130753 109 76 59
376.839232 326.173759 2492.465019 172 129 112
381.636786 284.361339 2506.530190 178 134 115
406.186628 92.998552 2568.845177 82 60 74
398.942208 354.006767 2084.838486 92 64 56
398.942208 354.006767 2084.838486 92 64 56
397.014380 275.040197 2526.580238 168 132 108
418.311071 284.813452 2069.870567 168 132 108
435.393000 228.989148 1292.915916 59 41 37
454.802561 226.048517 1884.874725 177 134 114
454.228592 243.610263 1871.687698 168 132 108
462.691689 264.720082 1524.945068 168 132 108
466.750193 266.371894 1375.231171 168 132 108
434.231091 189.863181 1122.617054 102 71 66
464.511871 251.541615 1712.676620 172 129 110
469.084024 225.480056 1737.993622 168 132 108
470.059395 243.057632 1639.627838 168 132 108
471.738243 254.092860 1513.779354 168 132 108
477.605867 -33.160684 1594.688225 133 84 77
454.853439 219.003367 1246.845150 128 97 86
484.339523 8.671629 1413.413811 147 88 75
469.305229 119.260788 1287.105083 47 30 41
472.755098 -0.890600 1494.921780 143 95 82
477.028608 260.771799 1472.071648 172 129 110
477.660608 -29.733777 1523.168564 233 178 157
477.856016 1.801686 1494.056797 142 93 80
474.208069 232.268119 1277.614784 25 19 21
479.362488 190.316498 1308.746052 167 126 110
499.922037 118.092072 1227.206898 131 89 80
498.002911 41.684234 1460.047436 198 152 135
482.123709 202.241468 1293.268967 100 62 56
490.290117 191.720819 1296.690655 189 142 124
485.109758 239.763784 1238.969326 48 34 23
465.977192 217.972016 1083.826065 64 42 33
492.927408 230.197763 1250.055027 44 34 23
503.799057 163.698745 1319.222260 133 87 81
504.868031 163.513374 1319.716072 135 95 84
-859.727955 37.283009 1813.033867 170 129 114
-836.166000 365.379024 1801.991081 94 65 52
-853.746605 70.349532 1814.158630 195 148 130
-845.606613 59.160841 1816.967583 99 70 58
-842.874908 95.502073 1818.706322 74 57 72
-847.267246 46.702379 1824.847794 167 129 119
-814.636612 367.537999 1805.437088 109 73 55
-833.573914 109.952962 1824.662399 79 57 66
-808.172035 369.142103 1812.441063 111 69 45
-850.322914 -92.925811 1841.814041 189 144 130
-832.481956 159.664273 1830.597687 178 135 121
1505.485439 458.922529 602.134609 143 103 85
-953.367519 280.244112 1900.128174 112 69 44
-821.641636 224.095798 1825.712585 94 63 51
-851.600266 -111.716068 1851.677704 65 42 45
-923.301601 -665.845346 1903.962135 117 84 75
-1584.302044 222.693014 2285.775566 112 77 62
-830.291271 -63.689262 1850.249481 138 93 84
1377.521706 308.783579 656.680679 107 67 47
1200.039673 251.427007 704.012823 70 38 35
-776.907015 379.289675 1827.020454 161 113 103
-776.907015 379.289675 1827.020454 161 113 103
888.187885 231.996632 936.833954 207 161 143
-799.446630 55.550545 1849.554443 188 144 128
-796.131325 93.295825 1849.128723 122 85 71
-794.091797 193.185699 1848.182869 99 68 53
-810.580921 129.114735 1858.931351 78 51 35
-788.874769 42.364162 1856.350708 191 147 129
-851.917744 -416.640234 1902.676010 164 119 101
-849.283600 -433.007336 1906.158447 200 154 136
-759.363508 325.585198 1840.590096 89 59 44
-795.089865 -62.604016 1870.576859 176 134 120
-774.489689 218.695545 1855.139542 144 103 87
-1205.404854 -319.652629 2117.481422 69 44 32
2237.729454 653.338194 -29.822412 79 48 43
-775.818157 60.679930 1864.848328 180 140 128
2491.901779 1038.986778 -23.586780 180 141 128
-832.246876 -410.230875 1910.607147 186 142 124
-834.500980 -430.237722 1914.842224 110 76 62
-833.526802 -441.320896 1915.389824 105 68 49
-770.195103 229.260683 1863.260269 109 77 60
-806.335640 -125.333583 1895.353699 211 166 152
-846.200848 -549.193001 1929.124260 200 154 138
-846.139717 -568.363762 1929.961205 177 135 120
-731.051779 387.018800 1840.572357 201 157 142
-731.051779 387.018800 1840.572357 201 157 142
2423.201752 853.527164 -187.071002 146 101 83
-846.333408 -578.818703 1933.906174 178 139 127
-827.649117 -380.473495 1919.527817 41 36 49
-843.838978 -569.906712 1934.459305 71 48 53
-821.053219 -403.883600 1918.697166 143 128 132
-1674.398994 -414.443159 2463.681602 107 67 47
717.065716 208.714318 1032.982159 62 33 29
1258.783817 286.577892 647.027254 138 91 73
-1320.918465 -242.143369 2251.587868 190 147 135
-748.156548 97.845614 1869.050598 130 90 80
-711.543655 423.449421 1840.112686 168 128 114
2443.902969 865.033245 -228.742146 181 125 106
772.142506 206.547356 1001.067829 95 63 50
-750.767565 45.477173 1878.637314 133 94 79
-749.927473 227.102637 1874.256706 115 75 56
-742.859602 96.606302 1874.693680 190 147 129
2611.956406 1109.912682 -134.665048 190 140 128
2450.991058 865.725708 -240.152431 229 181 163
2450.991058 865.725708 -240.152431 229 181 163
-805.449390 -421.846533 1930.697441 101 74 82
-757.516336 -50.720131 1893.383598 147 103 85
-741.379833 60.943574 1880.829239 129 87 74
-814.167118 -524.181366 1945.772743 150 108 90
-735.716820 69.225848 1884.829712 151 105 87
-828.149033 -622.550392 1963.187408 105 80 85
-796.638107 -428.510427 1938.538170 130 88 72
-801.721096 -479.284239 1946.105003 113 74 61
-831.988716 -626.103830 1975.195503 203 158 142
-800.293827 -518.689156 1951.848412 181 141 125
-689.420605 379.248452 1855.630493 180 137 120
662.721443 201.280951 1067.061710 95 63 50
-832.199192 -665.933323 1982.906723 198 153 140
673.812532 202.693605 1060.369396 93 62 49
1072.144794 320.111084 681.727362 205 160 146
-726.899529 41.113254 1897.711372 178 137 128
-779.916620 -426.419640 1947.677994 135 95 80
2896.747017 1298.146057 -640.623093 198 155 142
-729.877901 -55.720609 1909.383774 179 138 124
3185.976982 841.384506 -807.179928 100 58 49
1072.501850 368.785548 678.196621 138 86 72
-771.308756 -426.199913 1953.202629 191 149 132
1094.706059 326.505351 659.699965 195 149 136
1094.706059 326.505351 659.699965 195 149 136
-774.213886 -477.743959 1958.918190 123 82 71
-724.067116 -55.128872 1914.213181 175 132 119
4332.178879 2342.143059 -1759.305382 159 109 91
-770.219278 -455.592394 1959.542084 133 90 77
-662.838984 415.743971 1861.456871 172 134 116
3010.261917 1407.811165 -767.834187 213 168 151
-766.128683 -469.002485 1963.518333 210 166 147
-692.786789 172.162569 1895.144463 165 121 108
-727.767754 -109.638584 1931.375313 190 147 135
-727.767754 -109.638584 1931.375313 190 147 135
-752.551746 -401.678133 1958.477592 129 89 80
-686.982059 201.657248 1894.197464 111 75 64
-759.610271 -454.589939 1965.668869 176 137 123
-761.612177 -478.029251 1971.488190 125 85 67
-681.425095 137.077868 1896.665192 179 133 122
3902.151871 1425.202179 -1428.893375 229 181 163
-686.125278 94.524866 1905.129623 157 112 99
-757.178068 -505.492783 1976.918793 158 105 89
-757.178068 -505.492783 1976.918793 158 105 89
-689.831924 58.035892 1910.947227 164 127 110
-685.815811 52.929866 1908.812141 106 73 67
-748.841524 -439.050865 1971.385384 122 83 72
-742.361116 -425.507021 1968.981552 122 80 70
-743.892097 -460.484838 1975.514603 190 147 130
-740.746689 -430.954647 1974.272919 187 144 128
3159.897614 1412.756538 -616.633892 199 151 138
3159.897614 1412.756538 -616.633892 199 151 138
-658.686399 298.189783 1892.768288 184 142 123
-685.463428 55.777192 1920.540619 182 139 126
-746.023369 -517.853022 1987.142563 147 102 86
3736.543655 2108.833885 -1452.744389 155 101 82
-663.638306 155.570912 1910.693169 177 139 126
-690.034819 -103.439355 1939.559174 124 90 94
-734.006310 -474.082136 1986.005592 203 159 140
3636.725998 2173.086357 -1394.074345 161 104 83
-720.077085 -315.295792 1972.626877 132 84 69
-723.728085 -369.520926 1980.556870 58 48 58
-720.446968 -398.128605 1979.861641 92 69 74
-659.142351 159.894991 1916.260147 104 74 67
-656.824350 159.885466 1914.933014 104 74 67
-725.186634 -436.363888 1987.653160 187 142 125
-904.218197 -718.777561 2128.655052 145 92 73
4043.595505 2424.275970 -1784.114075 155 101 87
-893.785191 14.295039 2113.718033 107 65 55
-710.137415 -449.281836 1996.777153 154 118 104
-710.137415 -449.281836 1996.777153 154 118 104
-612.587833 381.463361 1899.579239 96 68 62
-652.302599 -1.802824 1948.915672 182 139 129
-618.706560 290.923381 1911.168098 180 140 127
-651.286221 -1.289626 1948.431587 182 139 129
-692.476559 -427.035666 2002.566147 125 84 73
-636.387110 49.024671 1940.965652 182 139 122
-694.325209 -504.104805 2013.561440 144 100 90
-692.900896 -526.163483 2023.017311 160 113 95
-620.653105 121.391642 1938.420868 109 75 69
-618.946362 115.968823 1943.469620 193 150 133
-624.072790 50.735456 1953.114128 107 65 55
-614.409971 121.397519 1948.795509 108 76 70
-624.851990 0.644285 1963.224602 105 70 63
-614.141560 90.239394 1951.103783 111 76 62
-621.320486 -6.245035 1967.658997 66 56 71
-621.955252 -2.170464 1968.528748 181 142 132
-574.629498 426.113653 1912.904167 176 137 121
-614.999437 -30.723637 1970.755768 145 141 140
-573.822403 307.069707 1931.664085 187 144 126
-610.488462 -33.207586 1979.185295 155 146 144
-610.037136 -43.222326 1980.580711 97 66 68
-573.067331 255.967331 1936.848259 106 74 67
-574.110651 220.455742 1948.163223 189 145 127
-608.078289 -127.582181 1995.973206 101 71 73
-570.020390 338.750386 1940.199471 148 116 104
-564.989138 338.099957 1937.117195 148 116 104
-569.673824 256.238031 1950.007629 104 73 64
-574.979591 166.373026 1961.490059 188 144 131
-565.562487 250.445127 1955.051994 155 121 108
-565.562487 250.445127 1955.051994 155 121 108
-590.108538 -90.010118 2014.762115 132 96 88
-531.409311 304.761839 1955.307198 104 72 67
-47.779989 308.892393 1545.387173 177 134 119
-520.780754 300.351596 1970.275688 152 116 107
-527.428389 -4.736852 2021.000099 152 137 136
-517.915773 -41.458106 2032.064819 129 95 87
-486.427975 349.019766 1978.453064 177 139 125
-477.567005 347.309709 1986.536026 149 117 104
-487.151432 143.231094 2016.576195 189 145 130
-535.675192 -616.860676 2130.284500 174 132 129
257.209158 149.570251 1305.950642 194 150 134
-488.614035 19.019391 2040.575981 206 162 145
-460.328341 398.322940 1984.254456 95 66 61
-459.734249 313.124728 2000.378990 99 70 65
-464.535666 274.735522 2008.170319 178 135 118
-461.072683 274.583960 2005.709648 178 135 118
-459.542274 269.014096 2008.476830 101 71 65
-460.471439 232.217050 2013.581848 176 134 115
-461.188745 225.594902 2016.564941 99 69 65
-457.850599 93.863058 2042.144585 155 121 107
-452.725172 95.192260 2038.939667 141 105 93
-476.282215 -275.750852 2102.153206 133 91 77
264.993858 277.966213 1304.127789 89 76 108
-438.925362 421.760130 2009.315681 88 69 92
-474.255848 -342.892623 2116.188049 212 165 148
-453.318691 -43.273652 2072.518730 139 100 90
-466.297007 -287.715530 2108.749390 163 118 107
1218.868256 124.476659 337.654328 181 139 120
-466.050243 -350.938034 2120.177460 172 123 109
-468.216610 -379.803395 2126.149178 154 104 89
-447.395945 -29.130074 2074.319077 194 152 137
-418.064594 444.340277 2003.103065 156 123 107
-434.462547 157.099009 2055.964088 40 31 44
330.309319 98.246807 1281.024837 189 144 130
-402.746487 446.532154 2013.421822 154 121 110
-424.162388 -26.159152 2088.736916 132 94 83
-36.390957 128.061116 1743.295670 100 58 49
-817.914677 236.732054 2502.549362 44 24 16
-408.683348 133.767307 2068.430901 123 86 74
-416.382742 -43.028513 2094.963074 179 137 124
1349.591255 134.051502 155.740488 65 31 32
-438.397217 -241.395569 2140.283775 156 116 107
-431.710434 -337.589025 2146.955299 58 47 59
-412.430143 263.983297 2066.234207 91 55 40
1264.433384 122.277033 262.349868 37 21 13
-412.638998 407.063866 2055.438995 70 45 39
1298.302555 192.382836 222.231960 65 31 32
-401.386309 96.471190 2079.674339 134 93 80
-238.590479 264.544082 1911.956406 66 40 35
-398.625588 105.494833 2079.948997 132 90 76
-419.010592 -367.541766 2151.891136 121 90 88
-420.476007 -244.081545 2144.322205 220 174 162
-897.951412 -322.729421 2671.572113 69 38 30
-431.951284 -540.273142 2190.307808 206 162 151
-395.545387 86.210352 2084.853745 188 145 129
-412.475157 -77.449334 2124.777603 181 134 125
-391.047597 110.403347 2083.516502 107 70 60
-411.370611 -382.850790 2158.254814 161 135 136
-391.183352 81.861442 2088.191986 114 75 64
202.312112 185.077763 1545.140553 88 57 45
1367.878819 564.275742 62.731087 170 112 91
-412.191725 -318.867779 2157.153130 82 63 63
-384.641409 422.279739 2050.010109 176 131 119
-385.890317 131.619406 2082.987976 105 75 68
-407.312965 -383.438301 2162.175560 174 139 134
1302.291298 196.543288 170.929301 37 21 13
-415.077639 -402.815962 2173.658752 154 131 130
-407.872391 -475.400639 2176.919746 184 138 129
1374.740791 599.956703 40.624091 197 151 130
-402.815008 -386.128473 2165.179443 128 84 72
240.673995 109.781015 1374.369526 201 157 145
-399.877095 -388.895226 2167.461395 194 152 139
-402.235651 -474.891758 2181.132507 191 147 134
-397.975492 -427.359438 2174.668312 119 76 66
-382.235479 -29.564857 2113.362122 135 91 81
-397.582364 -477.439594 2181.844711 150 108 94
-374.460888 121.171343 2091.115379 189 144 130
-378.733802 11.677191 2108.144188 108 79 75
-393.724513 -412.547636 2175.480843 148 121 129
-378.778768 308.156872 2080.405807 76 43 34
-379.470992 297.779918 2082.603264 86 50 39
-390.760803 -402.735901 2174.196053 140 98 90
-387.006235 -404.878235 2177.187347 198 155 142
1363.145924 553.512716 32.484567 142 91 68
261.693358 174.881995 1354.100990 180 138 123
-384.907246 -380.851007 2174.727058 129 86 78
-384.951472 -424.560785 2179.715729 182 143 130
-384.852028 -361.990118 2173.116493 120 86 71
-362.550712 133.617663 2094.534683 98 68 62
-368.806577 316.563821 2081.817627 223 153 134
-381.105924 -419.224644 2181.078339 99 69 77
-367.077613 -9.519655 2119.375992 147 101 89
-359.302545 113.941145 2099.013329 107 72 58
-380.244136 -77.620775 2148.069382 221 175 156
-363.264871 0.399486 2119.417000 198 155 137
-363.307524 325.880265 2082.946014 52 22 16
-361.032057 342.848325 2080.755806 176 140 127
-372.997689 -427.319860 2189.278793 213 168 151
-370.309544 -377.387333 2181.657410 120 78 66
1440.419292 890.714645 -143.062401 149 97 71
-353.488159 107.207751 2106.665039 168 130 114
-357.405210 343.540716 2085.082054 185 146 130
-380.124712 -250.812602 2183.723831 175 120 99
-377.381539 -322.441602 2190.652275 37 19 17
300.145006 223.609948 1313.255024 197 155 136
-353.429842 309.017563 2093.124962 78 47 42
-353.429842 309.017563 2093.124962 78 47 42
-361.265993 -357.891130 2184.106827 125 90 78
-364.968181 -492.460060 2205.253792 194 150 136
-353.178668 270.597911 2100.574684 81 50 40
-356.721210 -414.561749 2194.968987 80 63 85
-355.245757 -360.315943 2187.179375 207 164 149
-358.806133 -467.844343 2207.925606 202 154 139
-354.700804 -396.230674 2195.561600 120 83 72
-354.700804 -396.230674 2195.561600 120 83 72
-340.089965 103.104711 2117.776680 155 120 108
-353.545451 -407.845306 2196.842194 120 85 88
1473.040771 472.286272 -151.666343 195 149 136
-348.771214 -383.948779 2195.236778 134 91 83
-347.205639 -365.919566 2192.645264 193 147 131
-345.977402 -352.943277 2190.736580 183 141 132
-347.335219 -405.922842 2200.579071 82 67 85
-347.335219 -405.922842 2200.579071 82 67 85
-331.419539 84.974581 2124.497795 159 126 114
-341.092658 -392.026329 2201.879501 88 66 77
-335.513425 -367.705297 2200.576019 104 77 83
-334.405804 -370.785713 2202.312660 106 85 90
-334.405804 -370.785713 2202.312660 106 85 90
49.324834 -80.717957 1793.359184 168 122 108
1360.052586 521.417952 -64.805490 138 90 70
2291.797256 1240.438843 -1216.598129 219 172 157
1353.273010 575.130558 -66.377383 144 104 97
-321.153140 -358.473039 2207.605362 192 153 136
-324.638438 -327.224231 2210.641479 66 52 62
-180.580902 17.323157 1981.113243 165 127 108
1790.814209 903.735447 -739.840937 148 126 134
-314.684558 -463.395977 2232.942009 158 110 93
-303.892207 -339.982915 2213.999939 101 77 93
-251.838779 33.486328 2094.463539 43 40 62
-299.141192 -500.564957 2243.157578 141 117 125
-167.442679 24.792787 1995.034027 172 136 124
-167.442679 24.792787 1995.034027 172 136 124
221.555781 -69.645125 1471.650982 160 113 95
-291.917682 -365.378904 2226.161575 206 162 147
-288.723040 -364.593124 2228.478241 165 114 101
-276.142740 -365.971756 2237.029839 160 116 103
-152.791011 -65.619749 2061.347198 134 109 108
-246.281600 -188.153875 2222.916985 125 86 74
-248.274207 -293.984079 2244.594574 116 80 67
-240.066147 -227.497911 2232.071877 113 117 121
-237.985826 -222.228765 2231.980705 58 48 52
485.050631 137.864077 1287.356472 123 84 70
-230.758548 -253.544784 2237.289810 148 167 171
-230.758548 -253.544784 2237.289810 148 167 171
-230.547190 -314.586043 2249.731445 61 61 66
-228.120375 -316.154838 2252.279663 90 91 95
-227.762675 -258.574176 2242.323303 138 148 152
-83.974063 82.462960 2004.263878 43 49 58
-80.041277 55.920464 2003.465080 47 56 66
-207.506990 -286.452603 2262.616158 141 152 155
-206.705976 -279.995155 2262.708473 110 123 124
-205.239630 -402.306747 2286.282158 153 118 109
-203.164363 -285.675263 2263.479233 132 137 145
-204.239178 -276.435399 2265.845680 71 72 82
-108.794224 -96.135443 2087.036324 44 38 53
-201.762843 -268.410277 2267.503548 108 118 125
-76.711059 96.883833 2005.599594 66 67 78
-197.401714 -398.051381 2285.637856 103 64 59
-73.487526 62.758511 2008.374977 32 39 51
-70.693886 56.862634 2008.145332 47 52 61
-70.693886 56.862634 2008.145332 47 52 61
-75.108689 104.558468 2007.495308 94 112 118
-71.209043 68.626076 2012.393379 68 84 95
-72.521162 95.273983 2010.621262 87 101 107
-72.521162 95.273983 2010.621262 87 101 107
-189.847910 -276.251221 2265.172005 40 39 49
-67.703944 54.539138 2011.189842 107 132 141
-184.748602 -433.458233 2288.726997 133 97 109
-68.312776 67.256069 2015.006638 71 85 94
-68.312776 67.256069 2015.006638 71 85 94
