ply
format ascii 1.0
element vertex 1053
property float x
property float y
property float z
property uchar blue
property uchar green
property uchar red
end_header
376.222348 -306.433725 3057.533264 166 158 86
325.720501 -972.073078 3475.940323 101 86 43
299.827194 -1050.011539 3519.525909 121 111 60
329.657602 -940.865707 3467.726135 108 90 56
559.836245 -1555.992222 3936.967850 109 97 57
359.973669 -205.686474 3004.430008 156 147 85
384.204793 -247.933865 3044.255638 163 152 89
638.360643 -1166.529751 3721.720886 134 124 81
369.007325 -1.092735 2881.962776 57 49 40
376.288080 -419.565248 3157.626915 157 136 74
360.028434 -224.539304 3026.639175 162 154 92
376.304984 -48.460224 2920.124245 117 95 49
299.504209 -1091.522408 3580.813217 35 29 17
318.092442 -201.587939 3011.460686 147 130 85
622.345304 654.755926 2539.790154 141 142 130
347.760487 -284.588909 3078.854370 54 47 35
335.125709 -952.253151 3514.994812 79 67 47
312.940383 -149.103069 2983.202553 85 76 55
308.255577 -179.188764 3002.476692 70 59 35
352.590775 -468.710089 3207.836533 82 68 36
309.033823 -871.593189 3466.834641 35 29 25
311.956310 -342.363429 3134.736824 46 37 28
589.991808 -1028.388309 3673.389816 123 114 72
599.590349 -1422.435760 3938.698196 24 19 19
287.927651 -619.722462 3320.740891 102 94 58
333.591461 -880.779076 3507.424164 33 27 23
334.431028 -59.582967 2975.015259 110 93 58
262.469339 -446.537542 3213.998795 39 32 27
845.435810 -1752.696419 4256.808472 166 152 100
572.267342 -1048.904705 3710.101700 29 23 19
326.139832 17.084236 2935.508156 109 114 78
511.432981 -1593.056011 4078.880692 21 18 17
338.559222 -46.562737 2992.106056 85 71 48
337.532234 -60.914117 3006.713486 255 254 253
854.830074 -1640.126419 4221.837997 144 129 86
854.830074 -1640.126419 4221.837997 144 129 86
560.039949 -1027.893162 3729.342651 101 94 62
728.468752 -1508.802128 4103.678131 52 45 31
647.293425 285.288572 2889.811134 138 142 114
910.877132 -1812.673569 4416.047668 149 130 71
488.727808 -776.262569 3608.107758 58 54 39
568.901825 -839.158916 3681.122971 140 135 81
4.499272 -785.279655 3502.671051 254 255 255
642.362976 878.196049 2508.979988 175 172 171
843.659401 -1546.842957 4256.927490 57 49 34
864.711952 626.555586 2751.664352 107 107 98
895.855045 -1798.644829 4457.791138 125 115 72
1.919307 -848.023415 3575.911331 38 32 29
903.611660 -1702.964020 4417.111588 172 162 110
571.539068 -803.127956 3705.641556 41 34 32
749.081850 -1161.780930 4012.296677 164 160 99
487.961960 -693.755627 3622.394943 48 48 37
711.262512 -1346.820927 4177.833939 81 73 45
711.262512 -1346.820927 4177.833939 81 73 45
451.452494 -550.517750 3564.484406 75 76 55
3179.718781 2385.499382 2094.824982 247 246 244
668.842983 -1029.074764 3970.973587 65 68 56
436.000443 -686.765766 3684.887314 15 11 12
450.651407 -668.430233 3675.926590 15 11 12
697.613287 -1389.905167 4255.402756 142 133 79
800.393772 -1622.498703 4453.753281 168 152 95
647.662687 -688.975239 3743.156052 150 145 99
729.296398 -1034.513950 4015.941620 92 89 69
729.296398 -1034.513950 4015.941620 92 89 69
698.927593 924.013710 2597.971725 175 172 168
584.068584 -780.036259 3827.538681 22 21 18
598.720837 -486.579609 3624.328995 136 123 120
576.969910 -743.716860 3813.897324 125 126 82
645.300627 -844.598103 3910.313416 81 100 99
645.300627 -844.598103 3910.313416 81 100 99
743.665934 868.862915 2670.788574 106 108 99
656.551313 -830.473232 3915.612030 116 127 92
144.428480 -3602.140427 5871.401978 177 164 97
770.915270 437.880421 3015.017700 93 88 70
613.238382 -2227.021980 4982.411194 62 55 22
774.468517 926.389313 2667.705345 175 170 171
2627.410698 1853.063011 2397.062874 254 254 254
207.155204 -3474.451065 5877.069855 151 137 62
858.963203 837.028790 2752.872086 161 156 136
741.041994 -1758.338356 4701.177979 54 50 33
741.041994 -1758.338356 4701.177979 54 50 33
841.720581 1632.513809 2154.981804 196 196 194
687.868071 -1200.196838 4272.292709 93 92 71
2564.186287 1839.312172 2408.493233 38 35 26
794.445801 974.917030 2651.319313 162 163 167
759.413385 1326.496601 2377.750778 192 186 187
793.407011 1000.682640 2634.001350 111 109 109
762.622166 1200.742531 2478.408241 195 191 191
859.366703 873.318958 2748.121262 59 64 63
859.844494 943.719101 2698.363686 154 155 154
847.714329 953.104782 2691.317749 57 62 73
828.587437 1620.139885 2182.291222 116 116 114
872.448730 903.453541 2740.259743 166 164 164
875.109196 905.320454 2739.512825 166 164 164
629.559517 -689.632082 3922.541809 28 24 21
767.626810 1312.746143 2413.095474 87 95 107
646.973515 -1516.935635 4580.910873 166 152 97
669.910431 -1726.371765 4760.003662 41 33 32
784.898758 1098.333549 2596.187019 78 81 91
873.014832 938.206577 2735.321808 67 74 75
873.014832 938.206577 2735.321808 67 74 75
-67.408389 -578.228664 3759.761429 25 21 19
678.569031 -1670.286179 4731.789780 127 122 87
504.895687 -2254.307365 5163.775635 162 158 105
605.042553 -1539.468288 4624.948883 25 21 18
655.842352 -654.750776 3951.315308 84 74 41
644.262075 -507.484818 3845.458603 180 164 97
801.678181 1298.861694 2458.812523 122 124 130
872.290516 938.764954 2753.564453 26 26 29
872.290516 938.764954 2753.564453 26 26 29
776.480722 1344.752598 2420.666885 43 54 69
776.480722 1344.752598 2420.666885 43 54 69
276.531291 -3214.387894 5909.173584 142 125 68
782.308722 1324.770451 2440.589142 54 62 70
782.308722 1324.770451 2440.589142 54 62 70
615.779543 -539.213276 3881.135178 58 47 41
637.128019 -1894.087791 4945.420837 182 176 110
869.417381 950.365067 2754.088593 144 144 137
815.884304 1040.432167 2676.031876 140 147 153
133.828998 -3132.549858 5865.181351 29 25 19
639.531946 -445.073748 3826.219559 63 53 40
633.596420 -684.665775 4015.503693 183 171 109
634.154558 -358.033133 3758.078384 177 162 106
733.502197 952.511787 2739.725304 70 73 82
645.499706 -299.399900 3716.717148 117 118 83
657.005262 -1629.945564 4771.807480 146 144 77
677.305317 -1589.270210 4744.291687 146 144 77
754.215336 1378.469276 2414.219666 77 90 115
780.516863 1337.778282 2451.128197 130 133 143
771.164989 1437.291718 2372.450447 177 177 180
771.164989 1437.291718 2372.450447 177 177 180
423.282433 -2285.271835 5278.890991 21 16 18
607.359076 -576.808405 3955.577469 118 107 58
758.762836 1397.983646 2407.691383 97 106 121
758.762836 1397.983646 2407.691383 97 106 121
988.434029 813.243961 2908.607864 109 108 108
795.801163 1209.254169 2569.583702 153 154 157
796.259403 1218.570709 2562.507629 92 96 102
916.871929 854.244137 2871.413994 99 99 74
786.654425 1075.750732 2680.845070 31 35 40
764.918518 1348.191929 2459.379578 41 45 53
915.369034 920.075417 2826.670456 159 156 153
647.398615 -1580.411911 4795.398712 152 141 80
794.092321 1217.523861 2572.584534 77 80 87
800.469303 1031.525135 2723.437881 55 59 67
779.446411 1231.582928 2560.081673 170 172 181
859.714699 1109.018517 2671.699905 31 35 40
789.083385 1256.921387 2544.646263 65 70 82
750.948048 1373.390102 2445.663452 159 159 162
338.095951 -2414.102745 5440.589523 143 132 67
909.582138 911.331272 2842.199898 147 143 117
909.582138 911.331272 2842.199898 147 143 117
978.100681 841.207409 2908.376503 164 160 159
580.883932 -305.819988 3780.373764 171 166 116
788.929224 1218.395901 2579.869461 164 164 168
785.736799 541.012478 3126.218414 157 151 80
876.101971 969.155502 2793.082619 58 60 61
987.139225 836.373043 2915.936852 153 148 143
987.139225 836.373043 2915.936852 153 148 143
985.519028 834.418869 2917.249680 153 148 143
551.627827 -426.935053 3876.440048 42 36 26
775.551653 547.231388 3122.833252 131 119 60
774.990940 1221.881008 2579.638481 161 162 169
758.971405 1134.487057 2648.959541 131 137 149
784.490633 1328.940487 2495.403862 157 158 162
757.090855 1126.638126 2656.724739 49 58 71
773.734522 1281.410217 2534.250832 74 80 91
758.988857 1137.111664 2650.655365 138 143 154
494.882011 -464.965820 3917.195129 152 151 98
897.487831 919.165325 2847.784615 162 162 159
751.809025 1178.837776 2618.277740 118 132 148
523.102951 -1047.095585 4399.948120 89 77 54
781.581831 1346.235085 2491.649628 78 82 94
764.800549 1061.597919 2723.314285 56 58 68
810.754490 1669.775391 2235.672951 142 144 142
817.676735 1651.822281 2253.222084 166 164 162
747.717667 1203.152466 2611.338234 110 118 130
746.506596 1202.084732 2612.001038 110 118 130
1019.475079 820.894337 2962.200165 39 40 47
531.157207 -249.000621 3780.762863 51 43 31
531.157207 -249.000621 3780.762863 51 43 31
821.191597 1016.667271 2781.352234 41 45 51
821.191597 1016.667271 2781.352234 41 45 51
854.495430 999.234676 2805.009079 40 43 49
799.439287 1661.772156 2255.198860 168 165 160
-609.863663 -4781.945801 7393.603516 255 255 255
461.406660 -917.452240 4341.653442 117 118 85
773.807955 1031.550026 2774.148941 71 76 85
437.150002 -992.019081 4403.933334 111 110 86
969.895458 828.616905 2965.713692 123 123 123
848.994923 937.673283 2864.621544 41 43 44
451.607227 -875.777721 4323.082352 140 134 97
375.841093 -1964.141846 5225.515747 184 176 121
419.761944 -952.585316 4402.544403 56 50 35
910.815048 852.543259 2958.454895 154 152 138
950.430489 840.857410 2978.180695 130 130 128
453.737450 -672.119665 4189.003372 76 75 61
802.642822 977.527714 2851.668167 27 32 34
825.378036 959.057045 2869.909477 46 52 57
407.112408 -1758.857536 5099.628830 126 113 62
481.283140 -689.847660 4224.050522 104 102 86
484.090567 -254.389429 3861.072540 61 48 39
790.758991 1668.756104 2280.887413 109 110 111
377.263641 -1830.005264 5181.387329 200 190 135
613.624954 1046.956158 2788.213348 178 176 174
633.290768 1040.866566 2795.410728 182 178 178
3832.950974 2445.060158 1970.446014 82 100 100
613.309622 1061.041737 2778.037071 181 177 177
41.994935 92.403889 3541.125488 255 255 255
41.994935 92.403889 3541.125488 255 255 255
795.355988 950.539303 2901.183891 130 129 107
781.769323 956.417179 2900.851440 42 43 39
765.753031 959.975719 2897.491837 117 121 125
512.302446 -1394.337082 4870.080185 180 168 102
389.035130 -364.114618 3988.239288 46 40 31
471.299553 -1504.344177 4974.808121 176 166 99
906.961346 861.837196 3003.711319 116 121 114
386.046648 -1416.050816 4900.883484 100 93 56
386.046648 -1416.050816 4900.883484 100 93 56
485.485506 -172.400904 3851.957321 162 144 81
800.400448 1729.026985 2257.575417 69 76 83
4454.809952 2780.822945 1722.334862 58 71 82
-1469.000435 -1402.085018 4742.790222 91 85 64
353.518319 -396.775699 4041.432953 80 77 65
-412.802315 -43.231380 3673.274994 71 72 73
343.919110 -838.068581 4427.281570 95 92 74
338.154078 -709.440374 4322.627640 89 91 77
338.154078 -709.440374 4322.627640 89 91 77
2279.580307 1589.604664 2518.358040 81 72 59
335.818076 -537.985086 4198.829269 32 26 25
712.980461 977.199173 2919.908905 61 65 42
374.468470 -1466.971397 5017.631149 164 143 74
171.319449 106.363809 3649.203110 31 23 23
549.745178 1053.798485 2859.835625 161 149 81
83.983880 -1449.889851 5004.978561 34 30 29
855.822182 861.932087 3052.064514 34 40 40
834.885120 872.283173 3042.798805 93 98 96
54.085714 -48.569965 3794.394684 127 108 60
54.085714 -48.569965 3794.394684 127 108 60
355.151463 -522.562408 4228.182983 64 51 37
353.317690 -1316.718006 4921.941757 44 34 24
694.750547 970.237350 2951.443291 131 129 91
786.486387 906.218338 3017.174911 149 149 138
143.190813 70.965075 3708.688736 87 98 79
122.051430 257.218695 3545.264816 32 25 25
-975.061893 -975.887585 4560.928345 47 44 39
142.853546 93.783557 3696.834946 99 104 78
381.823826 -196.412230 3980.421829 107 116 100
53.436369 -10.490307 3800.719833 100 93 53
549.062586 1004.798985 2936.922455 57 62 47
388.314772 -146.549034 3943.280411 163 160 111
388.314772 -146.549034 3943.280411 163 160 111
2111.572647 1432.576561 2653.350449 255 255 255
608.880091 985.577202 2963.536263 71 76 46
105.931175 310.739088 3533.250046 106 97 63
-407.586336 -2862.074471 6311.223602 248 249 252
-407.586336 -2862.074471 6311.223602 248 249 252
736.014891 899.537659 3051.754379 118 124 118
122.151566 217.220092 3625.022888 106 102 78
122.151566 217.220092 3625.022888 106 102 78
462.714434 -20.313674 3857.432556 119 106 68
89.338493 275.128531 3578.477859 19 17 16
118.953240 243.740511 3608.278275 118 108 78
118.953240 243.740511 3608.278275 118 108 78
82.615173 299.828744 3556.734467 34 27 25
221.282172 -1018.116283 4740.408707 94 87 77
307.595778 -1206.806183 4915.065384 20 16 16
-323.058176 -2777.102470 6283.743668 185 161 91
106.552422 223.347163 3639.339066 39 34 31
654.544401 934.776592 3037.110329 58 61 42
654.544401 934.776592 3037.110329 58 61 42
302.940392 -445.132351 4254.365540 117 101 61
89.109921 69.188672 3790.459061 22 19 16
285.348415 -231.240416 4076.155853 29 31 31
-351.535892 -2659.772110 6226.383591 255 254 255
279.152465 -647.361326 4450.896072 73 63 42
263.428044 -694.047546 4496.064377 167 153 104
306.670690 -355.967522 4197.956467 99 83 57
-543.519783 -417.805052 4245.493317 255 255 255
-322.861314 -2548.756218 6185.953140 106 87 56
-429.543257 -2803.743935 6434.400940 173 151 83
466.484547 71.639913 3856.732178 147 131 80
-32.991883 235.357118 3715.045166 35 35 36
-142.631459 26.741523 3911.053848 133 138 122
36.528027 -1250.518799 5094.997406 183 179 147
299.804568 -81.992090 4032.609558 55 47 38
294.168067 -63.698030 4021.744156 142 149 123
-562.256384 -438.197708 4375.418854 28 21 21
320.197058 8.372390 3978.115463 19 18 17
457.959938 1002.568626 3063.338089 178 156 81
-50.467831 445.206070 3583.674240 53 53 47
-298.809409 -43.974188 4059.889984 53 49 42
100.016844 365.015006 3689.947510 41 36 36
40.409249 469.914293 3597.276688 63 60 48
2646.079445 1855.684471 2381.831551 253 255 254
-55.336756 -251.635504 4282.974243 138 131 84
53.919995 -225.717807 4261.171341 46 40 30
-50.770962 496.655035 3588.962173 140 139 106
307.067227 731.516790 3380.667877 101 139 141
409.237862 1040.598011 3095.407677 173 158 83
-55.933726 485.634804 3627.743530 146 136 97
243.419075 1815.864944 2366.265869 179 178 173
2476.873016 1798.111343 2409.984398 170 168 165
-71.010321 181.015122 3934.939575 68 63 59
-432.431126 525.909710 3613.714600 31 39 48
-71.145582 171.137035 3971.579742 255 253 254
-424.517775 348.564696 3859.085846 152 146 96
75.587279 1182.059288 3039.157295 168 155 70
-242.929840 551.647997 3705.614471 254 254 254
115.269601 1859.530640 2408.607864 162 164 154
41.782370 1454.673100 2823.432350 190 181 138
46.444020 786.142349 3489.031219 121 151 149
321.577668 1016.675282 3251.677322 81 97 95
1.410313 1151.399231 3154.197502 92 87 27
-4.430353 1379.119110 2933.294487 151 148 72
-8.651502 1298.677635 3029.532814 186 176 142
34.648070 1114.293289 3213.319016 116 114 54
-11.776882 1331.005096 3000.237274 178 173 127
-20.293030 1376.020050 2959.206581 189 183 158
73.144376 1100.008297 3258.175278 165 151 85
16.021816 1141.499805 3266.014862 69 60 21
-72.092813 1243.186092 3170.725250 27 28 34
-80.027968 1257.738113 3158.235741 22 19 22
-135.742271 1325.075436 3106.676292 253 254 254
-90.900391 1252.995014 3177.152443 114 121 127
-162.293780 1271.637249 3172.590637 141 146 148
-149.576592 1260.353851 3185.568237 54 56 62
-67.734122 1766.185570 2665.529633 69 76 86
-137.125003 1260.620594 3200.566864 57 58 65
-65.732139 1890.203285 2542.569542 156 156 157
-69.608831 1792.246246 2651.546669 157 158 160
-69.608831 1792.246246 2651.546669 157 158 160
-160.085857 1249.851894 3233.562469 48 41 37
2525.706100 1809.741211 2431.988907 129 114 54
-86.043626 1815.908051 2659.160423 158 161 162
-90.351307 1854.892349 2625.780106 61 67 73
-177.165067 1248.615646 3293.610764 253 254 253
-90.133339 1856.963539 2635.705566 134 140 145
-90.133339 1856.963539 2635.705566 134 140 145
-87.440842 1855.858612 2637.227249 134 140 145
-211.620164 1120.011997 3440.126038 255 255 253
-220.363307 1203.762436 3373.563385 254 254 253
-206.201434 1207.677555 3368.283463 254 254 253
-88.142318 1927.016830 2584.521866 157 157 155
5532.252502 1882.732964 1847.896576 175 170 172
5461.354828 1965.452957 1762.541008 91 92 102
-109.210145 1869.060707 2673.860168 77 82 66
5519.429398 1885.195351 1812.667847 73 97 127
-213.439393 1101.667309 3531.330490 128 137 129
-87.124008 1139.268208 3479.277420 128 137 129
-67.290580 1145.040321 3471.271515 128 137 129
5453.847885 1924.942970 1718.522453 108 109 116
5537.322998 1832.329941 1801.414299 35 32 37
5537.322998 1832.329941 1801.414299 35 32 37
5451.937103 1921.290016 1692.644691 89 90 103
5853.849411 1483.544731 2030.031776 55 53 43
5840.719223 1483.831596 2017.728233 142 129 123
5751.330948 1568.934155 1922.706795 49 45 40
5376.188660 1558.327579 2024.770546 78 65 58
5846.856689 1469.132614 2006.357574 85 71 64
-12192.455292 1531.023788 6311.296463 85 88 99
-463.070011 1848.757553 3093.337250 175 170 172
-410.482073 1845.755196 3120.386887 73 97 127
-559.692478 2056.088829 2971.995163 95 94 100
-443.940878 1899.646187 3134.796715 35 32 37
-443.940878 1899.646187 3134.796715 35 32 37
-486.874962 2063.139534 2946.675873 121 117 120
-490.526438 2093.462372 2916.674805 181 176 177
-188.577437 1810.715294 3199.439621 89 90 103
-569.095659 2143.966293 2945.169449 106 98 98
-569.095659 2143.966293 2945.169449 106 98 98
-601.184797 2207.430077 2886.205673 107 103 105
-548.890066 2231.420326 2873.172379 55 53 43
-421.800518 2145.825005 2970.108604 49 45 40
-463.648748 2234.923935 2884.411240 85 71 64
2696.119308 2059.487724 2586.105537 143 159 144
309.000731 1175.537300 1525.467014 46 47 29
2760.504723 2080.672264 2572.180939 251 250 250
307.857490 17.122218 2113.112640 136 135 98
228.023028 766.360521 1774.990082 254 254 254
406.087589 62.739390 2211.579704 129 127 119
275.149798 787.536860 1816.211319 132 130 130
288.500643 1141.415691 1673.775101 117 126 135
286.834097 1191.117001 1657.708740 167 166 167
243.641329 576.809597 1946.917343 139 140 92
304.554462 369.458890 2091.660309 79 87 100
305.920982 405.866480 2097.085190 117 120 130
305.920982 405.866480 2097.085190 117 120 130
370.820212 318.146038 2186.076546 138 135 103
370.820212 318.146038 2186.076546 138 135 103
312.538505 432.535076 2101.405716 34 35 42
329.908514 364.671731 2208.234406 71 73 74
316.264820 -131.281483 2523.394966 255 255 254
300.110531 -176.755178 2559.569168 254 254 254
300.110531 -176.755178 2559.569168 254 254 254
316.882110 -160.200465 2560.766792 254 254 254
432.140636 534.531927 2339.208412 115 117 119
362.705851 -203.129864 2730.996323 48 42 27
435.934019 586.696482 2343.025970 182 175 175
402.327156 -92.484164 2723.040199 111 99 54
98.236382 414.577627 2312.045860 115 113 119
533.296394 542.967176 2417.762947 150 145 142
533.296394 542.967176 2417.762947 150 145 142
408.168650 -116.848803 2755.263710 166 145 77
-202.684069 -215.543675 2590.413857 103 105 99
493.444920 601.193619 2404.511833 119 119 105
450.519562 1193.845463 2050.071907 156 149 152
509.889889 90.662867 2735.810852 131 131 91
3151.492500 2448.525620 2371.983147 131 128 95
405.313635 -136.810446 2845.793915 63 63 35
405.313635 -136.810446 2845.793915 63 63 35
470.506191 1223.611355 2062.735176 143 136 138
171.216595 -1017.629337 3294.279861 103 89 50
702.999401 818.359566 2410.884666 115 113 119
395.037723 -106.874144 2867.614174 148 132 82
395.037723 -106.874144 2867.614174 148 132 82
392.553949 -163.999557 2904.870224 168 146 80
389.316916 -247.279572 2959.345055 165 147 86
395.687485 -206.180406 2937.051392 166 151 82
533.582735 691.191959 2444.379234 182 175 168
524.617958 719.381952 2428.616524 108 109 107
568.626118 182.102644 2781.262398 101 99 80
371.789646 -208.917832 2981.995201 98 95 44
699.255180 -1514.890957 3908.946609 255 255 255
290.409136 -782.427502 3323.813629 54 44 32
742.321110 -1055.509472 3658.615875 161 146 85
174.081481 -535.500717 3143.399429 111 98 55
676.502180 -1058.843040 3670.172501 83 86 72
315.865397 -1062.614250 3557.746124 54 49 38
338.540125 -249.232483 3052.331543 45 37 30
324.240708 -872.884178 3449.750137 94 89 70
306.804109 -349.203396 3137.779045 39 32 26
339.517999 -907.434177 3525.780869 79 69 48
323.854399 -74.542665 3011.664200 254 254 254
623.050880 862.284756 2543.402481 174 171 168
885.737991 650.077534 2772.478676 105 106 98
671.518803 877.890873 2582.058525 104 101 67
944.091225 -1444.831753 4240.398407 100 90 44
794.327402 -1083.888817 3972.047043 154 145 97
675.709534 884.083080 2603.008652 83 87 52
671.982050 -1029.477692 3922.145844 19 14 15
674.407339 -822.529697 3802.868271 85 81 67
759.736156 -1260.261536 4131.251907 83 71 47
654.421949 -1009.083366 3931.607056 18 17 14
747.339535 -975.365734 3937.521362 103 99 65
911.110497 716.714001 2815.749168 76 78 78
750.287342 410.978031 2993.148232 119 120 86
951.992607 707.456636 2842.426109 40 40 41
698.098707 -847.616577 3859.536362 120 116 78
673.335743 -790.431786 3815.984344 58 55 47
673.335743 -790.431786 3815.984344 58 55 47
873.757076 -1720.605087 4525.745010 185 177 114
776.466608 -956.938553 3973.899078 116 117 99
778.661156 -927.606201 3973.974991 30 32 37
687.776804 -783.354044 3877.492142 74 97 98
643.527794 -742.158937 3837.871552 64 75 66
867.702007 859.188557 2755.630875 61 58 59
867.702007 859.188557 2755.630875 61 58 59
867.702007 859.188557 2755.630875 61 58 59
614.563322 -511.708212 3668.762207 25 20 21
799.555302 -1643.513107 4544.816971 163 153 91
821.407700 -1036.621571 4118.472290 125 117 86
680.049515 -791.671038 3915.952682 35 30 27
623.213339 -491.270018 3690.305328 81 90 75
769.160843 1315.703678 2424.707985 130 133 144
776.919651 1055.742073 2614.832115 77 81 93
776.919651 1055.742073 2614.832115 77 81 93
758.159876 1095.223331 2586.951828 48 51 62
815.539742 512.366676 3035.922623 167 164 159
782.769918 1287.595558 2464.768791 163 161 165
794.398928 1008.166218 2676.205254 27 29 40
883.961296 924.875164 2761.156082 140 140 141
826.679802 1634.685326 2231.138039 167 166 166
826.679802 1634.685326 2231.138039 167 166 166
826.679802 1634.685326 2231.138039 167 166 166
855.447483 968.355656 2727.439499 43 43 52
791.726017 1193.350410 2551.386642 124 122 129
-52.743185 -590.335894 3694.270706 255 255 255
1902.602577 1201.807022 2862.475967 31 26 24
798.418760 1242.405701 2520.319366 179 175 179
798.418760 1242.405701 2520.319366 179 175 179
731.782341 -1205.389023 4307.781982 129 124 96
752.745914 1378.644180 2413.447380 77 90 112
797.509003 1195.833397 2559.505844 169 168 170
775.905037 1336.641312 2450.653648 130 135 146
784.020853 1332.101917 2461.017227 95 102 110
754.132128 1397.245407 2406.895065 94 106 122
757.978630 1334.337330 2455.340958 33 35 40
652.969313 -400.812721 3721.578598 56 48 36
1024.726105 793.750715 2921.038246 32 34 38
756.716776 964.653778 2735.734177 61 69 79
757.974863 1367.130089 2437.210083 42 45 64
750.013924 1389.396763 2424.046707 138 144 158
814.906788 1664.373970 2233.812523 59 63 79
785.695362 1279.117393 2517.596626 165 168 176
785.695362 1279.117393 2517.596626 165 168 176
655.910778 -524.187803 3841.183853 178 162 89
814.687252 1024.371624 2721.687698 133 141 149
789.545965 1215.470982 2572.977066 72 75 81
788.213396 1265.477371 2536.272430 156 160 167
789.046288 1257.133293 2544.244003 65 69 82
641.230536 -673.564816 3962.160873 93 75 48
-143.402231 -652.622461 3787.388992 31 26 22
1024.015427 820.077991 2929.206467 136 136 136
715.034819 -1597.686863 4684.476471 134 130 92
636.034489 -318.256044 3706.123352 14 11 12
780.065393 1253.725243 2552.726746 162 167 177
780.065393 1253.725243 2552.726746 162 167 177
770.414925 1129.656887 2646.032524 154 156 166
770.414925 1129.656887 2646.032524 154 156 166
983.170605 869.390202 2888.085938 38 40 38
782.596397 1045.201588 2718.671608 43 45 55
885.397053 947.174931 2824.374390 114 115 118
760.753679 1075.879574 2704.747581 102 105 115
809.920883 1019.686127 2759.160995 99 102 106
865.489483 973.977852 2813.700676 125 126 130
879.443455 938.340569 2845.464325 180 176 175
622.669029 -588.162088 3968.648529 125 115 58
618.924999 -505.222273 3906.244278 146 133 72
759.464455 1098.336887 2705.584717 87 90 104
679.317284 -1539.607239 4720.666504 158 153 87
777.281904 1035.209370 2763.742638 132 138 147
445.625734 390.432763 3202.754974 181 175 143
984.160328 838.204861 2960.908127 118 117 118
944.656849 852.101612 2943.609428 150 147 139
607.497644 -1757.997513 4938.864136 143 132 70
663.272381 -1538.298130 4782.003021 167 149 83
390.342021 -2350.522804 5369.206238 142 131 69
516.219521 -324.190712 3809.224701 170 161 113
-271.822596 -4428.189468 6917.385101 41 35 33
-271.822596 -4428.189468 6917.385101 41 35 33
-265.238833 -4409.456253 6904.597473 41 35 33
532.262611 -248.686409 3780.833435 51 43 38
498.410416 -235.663390 3804.512787 65 59 43
433.878565 -997.670460 4408.038712 108 109 88
421.508408 -887.195683 4334.165955 55 50 41
473.859167 -734.597206 4232.957077 39 36 30
410.870171 -965.213680 4411.407089 53 47 31
418.957329 -977.586460 4422.732162 127 122 90
450.323582 -387.645578 3956.813049 31 24 19
441.176987 -688.762093 4200.701904 85 84 72
457.989025 -759.009027 4263.412094 136 133 103
478.260660 1626.660919 2339.185143 128 122 109
480.377102 -279.260850 3882.191467 51 40 30
415.168333 -217.160702 3829.252243 15 11 12
461.219788 -1702.602577 5059.595490 112 97 51
790.232897 890.938759 3023.962212 146 146 136
107.383358 315.728188 3410.150528 143 159 144
359.946370 -1100.458145 4620.657349 37 30 27
297.741604 -1911.977005 5291.801834 51 43 34
369.397998 -1428.240871 4915.082169 131 124 79
643.485689 977.324486 2974.809456 167 162 101
761.768198 888.891411 3081.800079 82 94 96
319.629478 -617.360687 4321.037292 127 120 86
344.824481 -311.801505 4072.328186 176 156 98
63.727993 132.548285 3676.542664 26 24 19
84.808451 190.851140 3643.977737 118 112 86
28.246135 52.310830 3761.356735 25 25 21
80.380118 216.722894 3627.832031 127 115 83
348.011088 -1334.318924 4995.191574 140 124 71
247.429037 -888.220406 4615.473175 151 136 74
-29.464522 -38.556814 3866.912460 32 28 23
-402.147198 -2721.242523 6147.963333 255 255 255
241.424561 -841.057014 4597.458267 70 54 34
302.323294 -1323.619270 5023.209381 186 175 116
351.408315 1828.421021 2315.730667 77 84 80
2579.171181 1974.198723 2557.382584 204 200 181
-33.870083 75.856709 3820.284653 148 151 109
123.759508 -1156.716061 4928.744507 119 118 83
-405.995846 -2817.301941 6346.378708 95 75 51
-410.857534 -2755.785751 6306.767273 252 252 251
1950.837326 1673.217964 2597.983551 119 119 105
479.435444 1029.756451 3062.545776 195 182 129
304.685378 1848.171806 2350.544548 187 183 168
2346.104240 1868.278122 2563.110352 255 254 255
141.202116 749.236679 3357.880402 27 35 42
-168.394864 -776.321411 4734.251022 137 125 92
-9.252656 213.957000 3846.407318 109 103 88
-64.555091 493.154430 3591.191483 139 135 101
475.915670 961.131191 3209.611511 43 50 57
125.857842 1723.091507 2499.072075 124 116 80
806.984234 317.988205 3879.618835 137 125 92
959.187794 476.278925 3755.929565 137 125 92
-146.311796 312.913418 3844.312668 82 74 50
274.857903 1071.772861 3162.111092 170 165 93
-282.471442 -340.221286 4477.524185 255 255 255
260.648012 1077.420902 3169.885445 173 168 101
2.168000 1152.409172 3153.094482 94 85 34
3.334837 1473.581886 2850.459480 180 176 154
-8.484472 1285.602570 3042.722893 181 171 125
-40.468240 743.790436 3581.167603 83 97 108
-43.782917 783.155012 3546.131134 96 130 144
39.232978 1149.211502 3257.497406 64 55 26
-26.962730 1938.986015 2483.050537 68 77 84
-164.754784 1330.352211 3109.135437 255 254 255
-28.986284 1796.412468 2645.115471 159 160 161
-144.030082 1319.037914 3129.421997 102 100 93
-30.709189 1948.306274 2517.378616 74 79 80
-58.085972 1256.931114 3212.147141 39 39 44
-157.253814 1303.771496 3183.050156 255 255 255
-38.464311 1858.419800 2618.738365 55 60 77
-206.248760 1497.774315 2996.274567 255 255 255
-37.678829 1860.604286 2628.275490 136 140 150
-131.427789 1644.690895 2858.658409 255 255 255
-47.632182 1819.737625 2683.460617 124 127 126
-47.632182 1819.737625 2683.460617 124 127 126
-42.648166 1866.040611 2646.553230 162 163 169
-52.560550 1831.784821 2693.873215 169 166 160
-52.560550 1831.784821 2693.873215 169 166 160
-171.648133 1194.057655 3393.403244 254 254 254
-52.219713 2003.498077 2552.856064 159 157 116
-53.073162 2011.371613 2556.937218 37 39 37
-53.073162 2011.371613 2556.937218 37 39 37
2387.280655 1844.615746 2692.950058 133 135 103
2166.858101 1849.375343 2601.030731 119 119 105
2173.953056 1853.965759 2603.826904 119 119 105
2315.492821 1878.254890 2635.277939 35 27 28
2331.010246 1854.894066 2651.691055 134 121 68
2139.010620 1816.018105 2728.717041 125 122 77
2488.850403 2124.425316 2745.862770 255 255 255
351.451802 -33.771452 2123.139763 104 100 104
351.451802 -33.771452 2123.139763 104 100 104
305.958009 989.730263 1617.454910 255 255 255
308.799171 1009.856224 1610.515404 140 140 132
326.368213 8.618134 2130.536652 90 91 87
34.826255 718.582058 1646.814728 255 255 254
722.487736 387.047958 2308.189201 130 128 122
208.825707 669.968700 1816.005135 255 255 255
221.376824 828.397655 1741.224480 255 255 254
224.063301 626.114321 1864.870071 255 255 255
312.208891 335.044599 2083.216858 176 175 178
257.622004 832.500935 1783.633232 136 133 131
533.406925 813.503933 2012.954903 255 255 255
328.404617 1050.718784 1729.646301 123 127 130
375.982761 345.926595 2137.165260 137 139 135
287.803125 1033.673286 1708.021164 118 122 126
287.803125 1033.673286 1708.021164 118 122 126
327.329826 401.781893 2124.868774 94 100 113
333.814836 395.109916 2133.989716 57 59 67
512.133026 237.487960 2344.255638 79 83 78
314.190674 604.638815 2015.464020 99 98 89
314.190674 604.638815 2015.464020 99 98 89
327.132988 364.614511 2181.849098 130 128 129
821.378231 539.715052 2425.342941 79 83 78
372.107410 369.928122 2242.558861 137 133 130
430.298185 392.475891 2292.484474 91 93 94
617.436934 346.643567 2446.729660 54 60 50
617.436934 346.643567 2446.729660 54 60 50
331.291676 426.396227 2219.808388 104 105 105
335.619044 -135.505223 2558.909607 251 251 249
400.703573 -15.607999 2593.826866 147 150 88
365.185404 548.460674 2241.560364 104 104 104
365.185404 548.460674 2241.560364 104 104 104
433.227396 -96.667475 2686.496544 148 131 75
452.748442 81.941682 2599.397087 71 64 41
476.294422 147.122967 2578.782845 96 89 61
437.076616 130.054927 2565.991783 142 143 129
577.983475 465.619755 2472.558403 62 58 34
418.170786 608.353996 2307.406998 110 111 113
566.306067 541.888189 2444.132805 99 101 102
348.860192 -379.208493 2912.541580 255 255 255
370.211434 -284.132290 2870.025253 96 86 69
407.246590 -118.646812 2792.485619 149 130 70
407.246590 -118.646812 2792.485619 149 130 70
402.473688 -174.290800 2834.488106 58 46 29
354.320168 -305.159950 2894.639015 254 254 254
389.149117 -181.205177 2848.507309 174 158 97
389.149117 -181.205177 2848.507309 174 158 97
400.612307 -137.750649 2843.779182 55 50 31
400.508022 -114.927697 2835.178185 130 117 68
159.752440 -1161.804581 3365.606689 255 255 255
772.924662 515.402746 2656.692123 86 94 84
324.160194 -522.241497 3059.731865 172 156 98
393.987989 -188.121068 2887.795448 178 159 95
176.464236 -953.137302 3253.498459 137 121 86
534.594822 644.755745 2438.448334 126 125 118
534.674311 141.097021 2762.713814 125 129 97
385.089564 -264.243460 2943.062592 181 166 98
383.274150 -309.117699 2982.034874 47 38 34
381.988978 -383.237171 3031.926727 81 66 48
387.570405 -233.043456 2941.228294 100 88 52
393.970704 -158.748090 2902.414513 164 146 82
385.266376 -213.832998 2936.110687 171 152 86
213.421798 -1003.320122 3353.066635 60 53 36
718.208551 -1040.176678 3671.970367 123 111 70
663.917685 -1373.068047 3862.682724 87 80 49
341.188240 -1150.358486 3532.178879 255 255 255
557.021809 710.333157 2445.608521 181 175 170
680.319643 587.060165 2598.570442 47 43 23
462.414742 1221.570683 2059.601021 148 140 142
382.340240 -186.939812 2939.338684 99 86 40
338.245678 -943.088627 3415.705109 42 37 36
926.421261 -1500.720787 4121.184158 114 103 64
319.093776 -717.990685 3264.886856 69 58 50
399.816227 -6.278128 2846.065521 53 44 31
325.423694 -670.492411 3249.574280 135 123 84
995.714092 -1558.671856 4221.127701 138 120 76
630.340338 -1498.206615 3975.998306 254 254 249
325.844288 -935.215092 3448.204422 33 27 24
992.206001 -1451.915264 4171.517181 96 88 52
372.814846 -74.624777 2916.361618 162 141 80
829.234600 613.191271 2713.251114 51 52 52
891.598606 -1364.070034 4078.557968 66 59 40
1010.041046 -1591.726875 4304.021835 151 134 75
338.520050 -1037.290287 3560.935974 39 32 22
346.255064 -238.219142 3028.800392 153 139 80
972.176838 -1729.570770 4389.137650 255 254 254
784.811115 -1176.869202 3918.004608 58 52 37
926.604080 -1553.858566 4252.064514 138 121 68
357.991052 94.936657 2855.954552 102 117 57
813.099861 -1186.475754 3956.732559 103 99 69
915.302944 -1274.606609 4078.103638 53 44 33
338.123751 -483.906984 3226.113129 111 103 70
269.291210 -276.153588 3056.934929 89 78 61
311.329770 -582.653522 3294.892883 70 54 34
280.099988 -223.205733 3032.325745 54 48 37
306.972122 -346.116447 3135.787964 36 32 29
629.824018 753.368044 2560.089302 124 121 112
998.962212 -1498.015976 4311.432648 176 168 110
228.480625 -283.651590 3070.807076 53 44 34
655.362272 767.167521 2580.740547 162 158 133
956.565094 -1748.896408 4494.649506 255 255 255
283.193493 -440.820932 3231.019211 85 83 66
2531.093025 2176.458740 2720.261574 159 147 96
955.989265 691.311598 2833.190536 153 153 135
90.344179 -748.276997 3409.663010 41 32 37
874.342823 -1796.417046 4566.875458 162 151 90
773.455143 -1241.138172 4125.097656 84 74 44
814.503956 811.040115 2690.594864 75 76 58
839.261723 -1850.364876 4606.578827 134 123 67
761.270475 -956.104565 3931.184387 100 92 71
672.654819 -734.666967 3728.775787 118 115 90
54.005706 -711.107445 3401.638031 255 255 255
54.005706 -711.107445 3401.638031 255 255 255
21.283613 -815.467453 3481.186676 39 29 28
630.384302 -526.087189 3585.792542 104 92 88
717.283344 -851.210880 3873.538589 135 125 82
688.087177 -770.405293 3809.055328 69 64 54
806.301022 -981.256485 4024.312973 36 30 26
852.625084 834.693909 2738.341713 74 71 45
339.067125 -3183.465576 5411.915588 255 255 255
723.374653 -998.468781 4010.562134 30 27 30
25.234100 -791.791201 3509.680557 56 48 41
676.533222 -622.313881 3718.318939 52 42 39
628.876925 -710.277653 3772.770309 34 31 28
628.876925 -710.277653 3772.770309 34 31 28
742.094851 -1253.516865 4230.699921 42 38 33
825.924301 1599.740887 2181.096649 126 123 119
869.795513 858.856869 2756.805801 66 63 62
964.056778 775.035810 2866.162682 64 63 62
826.592541 1603.340530 2188.452339 165 164 162
678.645754 -742.470217 3847.863007 104 117 105
798.049307 -1779.053307 4677.809906 170 160 94
610.575151 -696.095705 3789.301300 124 129 83
788.017035 -1584.103012 4534.687424 66 60 37
788.017035 -1584.103012 4534.687424 66 60 37
787.591887 -1479.552460 4459.531403 82 75 44
786.554861 1428.307247 2318.786049 130 131 141
591.291142 -705.053425 3822.200012 66 87 96
591.291142 -705.053425 3822.200012 66 87 96
829.702473 1617.909241 2206.981468 102 103 101
815.198898 968.355656 2688.650513 119 125 140
787.823153 -1306.560993 4389.381027 167 150 103
825.767326 1634.101868 2199.894142 155 153 152
764.707136 1179.148006 2516.636276 92 97 110
908.407021 913.052368 2796.921730 91 89 90
774.516487 1032.540512 2643.933105 107 108 117
796.577358 996.656227 2682.645035 119 126 143
796.577358 996.656227 2682.645035 119 126 143
782.489443 1034.848690 2648.157310 96 95 100
764.243317 1324.362850 2419.810104 125 128 140
710.852623 -1486.756134 4541.517258 140 127 74
778.024721 1055.699062 2641.437721 63 68 81
775.100327 1330.784702 2433.779716 40 43 52
775.100327 1330.784702 2433.779716 40 43 52
782.236338 1315.997410 2449.159241 24 26 37
818.698406 996.104145 2711.880493 44 46 55
708.392286 -1604.345894 4658.485794 34 29 23
819.507504 546.404648 3062.559509 179 177 171
781.053114 1118.080330 2604.980278 174 175 175
781.466436 1207.527447 2537.797546 180 180 186
791.372013 1145.909595 2590.128708 97 98 107
825.879478 1631.819344 2232.642746 167 166 166
682.333422 -1539.831448 4619.343185 141 133 78
727.188444 -1582.137108 4678.650284 130 125 88
855.609894 974.119568 2760.383797 107 109 111
855.609894 974.119568 2760.383797 107 109 111
912.841606 926.404762 2824.214935 82 80 82
307.265306 -3214.900589 5755.076218 140 124 60
810.451221 1027.286720 2700.456429 130 134 143
757.232904 1399.137497 2390.332413 127 133 146
647.466612 -1274.047565 4413.976669 34 27 24
790.099144 1325.631714 2465.539169 30 34 47
711.644506 -1805.382156 4862.602234 128 114 65
804.435825 1069.627953 2671.803284 29 30 42
734.733438 -1699.821091 4795.137405 196 188 130
643.815231 -1397.951794 4522.272491 78 72 56
753.874683 1387.087250 2405.596161 145 150 157
826.738071 1017.566204 2726.937866 49 53 61
749.413729 1376.207924 2413.703918 81 92 114
660.398531 -393.498993 3751.999664 167 144 78
660.398531 -393.498993 3751.999664 167 144 78
815.411854 1023.833942 2722.350693 122 129 134
883.820915 962.799931 2800.900650 129 130 131
433.512259 -2474.033737 5291.136169 36 30 23
753.778934 1395.897675 2407.652283 85 96 110
796.353340 1327.765369 2480.171013 111 117 132
796.353340 1327.765369 2480.171013 111 117 132
777.535391 1253.598881 2531.896782 71 72 82
777.535391 1253.598881 2531.896782 71 72 82
789.484072 1279.411221 2518.928146 164 167 175
645.031595 -587.527370 3921.052933 54 46 40
801.542568 1064.744663 2695.110130 42 43 52
640.682411 -546.063614 3887.739944 51 44 35
787.904644 1165.369511 2610.493088 39 40 50
788.173056 1067.177773 2689.315414 156 158 159
798.139858 1020.602608 2730.818748 52 55 62
815.213585 1661.624336 2235.755348 36 39 52
1008.125305 825.542545 2979.587746 173 175 176
787.080145 1263.674355 2537.063408 159 160 166
981.757736 834.054089 2963.046265 111 113 113
641.210890 -660.222626 3990.769196 72 59 41
748.537350 1360.825062 2448.077583 37 41 53
353.499055 -3052.961922 5756.877518 118 101 52
638.478661 -397.708511 3791.077042 61 50 46
638.674498 -681.793690 4016.053391 182 173 109
817.092609 1650.062561 2253.982735 161 161 161
755.131292 1358.932018 2458.960915 99 109 123
759.523964 1352.780056 2467.377472 94 100 113
778.169012 1264.430046 2547.394180 162 164 171
636.392498 -351.636314 3769.349670 68 57 43
771.554995 1278.683949 2535.405540 41 44 60
808.349323 1017.614460 2760.031700 110 115 117
628.185797 -386.720085 3802.671432 194 182 118
770.298243 1063.442516 2713.954163 104 115 133
759.316635 1091.467762 2688.440323 55 62 76
740.751600 1139.593029 2642.136765 66 77 95
773.013306 1335.397243 2501.139641 158 161 165
769.004011 1358.330917 2482.565498 114 116 129
271.997333 -1228.479195 4336.455154 29 24 23
617.122507 -509.986305 3909.375381 136 127 68
663.169050 -322.149968 3782.723236 187 175 106
1950.595665 1461.205196 2935.341072 255 255 255
860.247421 993.318462 2817.961121 104 111 118
755.240536 1101.096535 2690.261078 136 137 144
604.690552 -582.429171 3976.869202 188 178 117
391.556978 -2893.387794 5759.533691 139 122 68
849.381733 979.700279 2837.622643 135 139 143
824.319077 956.233501 2847.093391 28 29 32
819.385910 1005.261421 2813.378716 127 146 163
822.790813 1027.425385 2798.775864 121 140 162
799.121380 1677.003479 2265.341187 154 156 153
794.928980 1681.926918 2261.133957 94 97 91
807.653046 1635.192108 2307.012558 112 113 118
717.159986 1336.623955 2512.010574 194 189 190
526.913977 -463.912964 3896.595001 43 37 34
793.983841 1675.265884 2270.704460 56 58 59
789.391518 1680.412292 2265.852356 149 148 146
565.831947 -275.821996 3767.153549 51 42 31
484.628391 -478.561831 3925.236130 155 153 108
536.717701 -253.923035 3767.390060 118 118 97
696.960545 983.327198 2823.230743 104 105 108
487.439442 -1022.433567 4392.398453 44 39 38
523.982191 -1730.748558 5005.002213 68 61 53
699.436474 1038.453388 2785.681152 165 165 166
867.798138 869.723225 3001.778603 89 90 81
449.704313 -1064.328003 4439.634705 92 92 78
470.751524 -953.324032 4358.047104 53 47 45
513.377619 -241.628551 3783.945465 159 151 102
767.231846 972.448444 2879.040718 152 155 154
87.413996 12.444271 3407.403183 106 100 69
698.557615 975.430202 2860.960197 65 68 36
604.139900 -1454.868698 4858.320618 187 178 113
51.914710 102.506399 3341.418839 171 172 152
456.757069 -1836.547279 5124.583054 175 161 94
477.543592 -1705.221367 5025.534058 87 69 40
437.060642 -898.050308 4337.860107 136 134 99
361.409211 -2049.458504 5282.164764 53 45 39
481.476068 -257.606983 3830.949020 164 152 100
405.935001 -975.133419 4417.986298 55 48 37
476.362467 -325.907660 3902.006912 95 81 56
444.545794 -1704.405022 5058.605194 127 112 64
429.535389 -705.673838 4210.567474 85 81 68
702.307224 996.529198 2884.275055 83 84 52
394.790554 -1812.232399 5168.792343 197 185 133
474.451542 -224.637723 3845.598602 164 150 96
815.576744 883.407784 3033.932114 42 44 45
287.347436 -2052.183723 5352.043533 33 28 24
411.815357 -380.318737 3970.321655 36 30 25
493.576288 -1353.741169 4837.119293 14 12 11
792.221117 907.463646 3017.321396 149 148 140
832.798576 878.742409 3066.790771 38 43 45
273.012090 -1884.218025 5261.162567 59 51 41
253.662491 -1920.425606 5310.331726 172 162 107
-87.743080 -11.809717 3532.709885 64 57 41
207.149720 -1933.764839 5342.003250 172 162 96
504.809332 1047.912502 2839.427757 93 90 51
504.809332 1047.912502 2839.427757 93 90 51
462.645388 -123.675859 3856.467056 151 138 82
341.663837 -374.915075 4038.397217 39 33 31
334.618402 -394.313335 4060.765457 46 38 31
61.638826 179.141200 3478.356934 255 255 255
474.593973 -105.024827 3872.714615 166 145 78
516.455221 1076.029205 2848.510551 102 93 41
516.455221 1076.029205 2848.510551 102 93 41
525.970221 1020.785904 2903.119659 79 77 41
323.392391 -1517.077732 5089.691162 139 121 64
630.602646 983.959103 2982.823753 181 174 113
350.893044 -266.549778 4004.666519 67 56 45
-100.724697 -234.560919 3833.413696 29 22 21
422.853327 -106.296682 3899.580002 28 26 18
70.436847 174.241269 3539.668655 253 254 254
65.886217 201.996946 3513.860703 68 57 47
-41.655102 -212.098336 3850.107193 254 255 253
-318.090057 -2805.405998 6089.472198 65 57 50
-318.090057 -2805.405998 6089.472198 65 57 50
69.596910 231.723380 3492.192078 245 245 245
-2.650406 -2408.246994 5867.651367 146 140 108
679.503250 911.475468 3101.368713 41 46 51
-27.132326 -171.800864 3846.208191 51 45 37
39.425686 -6.169464 3720.447540 31 26 26
52.861488 222.550750 3529.731750 38 32 32
236.686897 -833.861065 4556.309128 30 24 24
299.991441 -371.204138 4161.948395 24 19 19
212.828183 -954.500198 4681.644058 62 51 42
91.410762 56.833333 3720.100403 103 107 88
316.809320 -165.282774 3996.358871 24 22 22
-498.423052 -3235.980225 6576.547241 145 133 65
180.929267 -956.998158 4702.406311 167 150 105
60.532844 266.256166 3542.176819 26 21 20
82.510108 61.900181 3737.950897 44 38 35
56.504148 59.011436 3732.818604 108 107 85
-28.767931 -92.283142 3846.148682 44 40 25
82.684869 47.460380 3757.545471 35 30 27
54.839069 131.082249 3675.438690 31 29 27
59.322500 204.484034 3609.294510 27 23 24
-450.834846 -3073.104286 6469.736481 193 177 111
63.442796 12.309303 3791.061401 104 99 76
111.684513 -1243.744087 4968.765640 169 166 115
53.103524 277.165580 3554.684830 123 116 86
53.103524 277.165580 3554.684830 123 116 86
56.760639 133.850408 3689.300537 125 122 97
56.760639 133.850408 3689.300537 125 122 97
66.946381 209.388685 3630.582428 123 116 83
50.005907 26.533067 3795.971298 98 102 80
45.643362 296.360254 3548.927307 116 108 75
45.643362 296.360254 3548.927307 116 108 75
-414.929628 -2934.597206 6409.406281 185 164 100
-414.929628 -2934.597206 6409.406281 185 164 100
69.937319 -1281.844330 5044.791412 76 67 58
-515.179062 -3184.363556 6645.697021 255 255 254
109.041238 -817.578506 4627.425385 27 22 21
-377.624583 -2210.291481 5800.911713 82 66 52
-103.741527 253.171182 3586.174774 80 75 43
-18.991746 -977.322292 4774.086761 125 120 86
-18.991746 -977.322292 4774.086761 125 120 86
262.719798 -152.136791 4082.391357 60 47 37
-63.239872 259.184837 3605.405807 74 69 41
-55.410558 23.008849 3844.753647 26 20 19
-70.746589 168.762445 3703.620911 72 70 56
-396.569657 -393.466568 4192.907333 62 61 65
-106.080270 25.054324 3879.272842 125 133 112
333.477330 796.749687 3290.251160 138 164 159
-120.592999 204.072332 3740.180969 41 41 42
-206.150675 -20.584868 3946.995544 142 150 116
-249.440932 -83.317441 4011.309052 70 65 64
-70.288795 595.814371 3414.816666 171 171 154
-449.644184 -292.025423 4182.726288 255 255 255
253.634715 701.629019 3400.677872 96 135 138
243.498278 1570.102406 2555.183601 148 136 91
-33.468550 494.313002 3540.155792 50 49 52
72.533417 -465.867233 4514.443970 100 89 57
-44.717512 -288.186622 4305.610657 33 29 24
-44.717512 -288.186622 4305.610657 33 29 24
-19.889727 328.018570 3717.840576 48 43 43
-22.226639 487.441540 3590.305710 135 136 107
-206.106877 -336.693549 4365.783691 44 35 30
-206.106877 -336.693549 4365.783691 44 35 30
208.991504 782.429695 3373.233795 110 124 101
208.991504 782.429695 3373.233795 110 124 101
-286.128712 -557.990408 4591.187668 182 173 119
311.601043 1052.295876 3137.997055 177 165 92
-262.202311 -311.031127 4365.167236 26 20 20
-98.779935 360.378218 3750.965881 163 156 103
-191.674888 100.975060 3992.729187 68 63 62
-257.997036 -399.902606 4480.894852 163 153 92
1988.294411 1724.709511 2943.797112 245 245 245
246.563530 1827.006721 2373.406410 170 171 163
-125.121260 268.681264 3857.321548 84 76 66
108.386898 768.348932 3454.045868 94 119 119
312.074971 987.946415 3290.000534 51 54 59
83.302921 783.265305 3455.263138 159 166 160
179.916048 1089.505386 3174.842834 69 73 42
65.487212 800.263214 3454.550934 62 88 91
1977.259445 1687.996864 2948.582077 254 255 254
41.760892 755.468035 3510.013580 117 140 135
284.298682 1016.047192 3290.653992 89 102 99
-467.146444 215.943408 3971.958542 54 46 33
-500.010920 138.100266 4046.463013 250 250 248
32.476974 782.365131 3492.206955 120 147 146
36.493352 806.150913 3470.616913 135 155 140
184.851241 1092.484093 3203.805542 169 170 102
277.388787 1033.982658 3287.695694 99 116 105
-502.865505 209.028602 3994.684982 249 249 243
-499.061108 212.003613 3992.752838 249 249 243
-388.278246 388.645959 3839.807129 52 45 42
122.403538 1864.394760 2417.310333 106 112 107
-491.886997 212.887764 4036.291504 255 255 255
124.742389 1872.834396 2417.028427 165 167 155
100.065160 1869.143677 2420.923996 111 116 111
-64.298618 814.638233 3507.960129 76 105 127
3.805479 1257.530594 3056.846046 122 114 58
1.671249 1316.047955 3015.021706 185 177 129
65.894896 1138.750553 3233.710480 71 63 34
-4.098138 1374.672318 2972.899055 132 131 48
-4.098138 1374.672318 2972.899055 132 131 48
-21.409702 1262.631226 3094.916153 124 120 45
-43.228108 1178.873062 3199.313927 133 131 119
-43.228108 1178.873062 3199.313927 133 131 119
47.344041 1154.369640 3253.411102 57 52 22
-34.604678 1323.560333 3069.721413 78 80 84
-33.676153 1310.974884 3083.881378 73 73 78
-23.333552 1443.836594 2944.011116 156 158 162
-1.388410 1147.473145 3289.992523 85 72 17
-55.083519 1263.716221 3161.571121 111 118 124
-86.037523 1350.693130 3066.161346 79 79 81
14.027533 1904.244804 2473.496056 169 167 165
-83.295822 1316.724300 3109.891891 84 86 91
-38.946909 1250.054646 3193.833542 37 39 42
-22.160833 1236.253929 3223.797226 33 35 39
-4.567976 1779.084587 2627.724075 106 112 108
-127.648103 1283.120441 3162.840271 131 132 136
-169.543839 1334.677029 3104.776001 255 255 254
-57.256156 1148.149490 3326.984406 161 147 73
-24.145003 1614.900398 2820.755577 68 71 75
-24.145003 1614.900398 2820.755577 68 71 75
-165.441072 1239.635372 3220.256042 64 67 68
-42.739877 1257.351303 3221.185303 129 132 141
-131.813288 1278.296089 3186.781311 115 117 116
-63.382006 1585.610580 2855.375481 84 87 93
-145.606482 1250.381851 3225.102234 45 47 48
-118.907702 1475.025463 2980.966949 117 114 102
-0.249867 1799.358177 2645.305061 161 161 163
-117.970669 1528.907681 2941.885376 153 149 131
-154.629433 1281.340599 3222.308731 110 105 73
-81.225884 1214.936543 3305.670547 111 117 120
-21.841313 1801.655960 2657.932472 83 87 91
-108.435309 1633.285713 2838.234901 137 139 143
-119.741786 1568.197441 2915.005302 158 156 155
-118.517196 1624.221039 2858.217239 152 152 144
-109.664333 1587.318325 2903.184509 135 133 106
-112.940264 1596.765137 2895.407486 155 152 126
-143.164778 1216.516781 3322.842026 112 101 51
