ply
format ascii 1.0
element vertex 1081
property float x
property float y
property float z
property uchar blue
property uchar green
property uchar red
end_header
-24.989994 -126.969528 746.676731 142 122 140
-21.805063 -133.137357 750.972891 107 82 91
-19.404270 -138.079178 753.878593 89 64 73
-17.225769 -143.349743 756.790447 89 62 72
-12.052623 -152.105451 763.390017 86 61 73
-10.097282 -183.913732 763.209105 86 76 66
-9.268717 -173.826003 762.353086 70 65 65
-11.102246 -212.480378 770.298290 176 139 132
-8.289111 -196.034122 770.950127 204 171 160
-4.582866 -175.400019 771.832371 179 153 148
-4.978675 -211.279345 776.460791 173 135 133
-43.572980 121.216619 838.559437 139 112 99
-43.572980 121.216619 838.559437 139 112 99
-0.756278 -173.380637 783.273363 105 83 96
-50.485528 36.081651 916.906357 58 25 22
9.455272 -172.429740 787.883663 77 60 76
-47.793302 55.640781 919.408703 131 129 125
-46.434245 20.926873 922.803879 232 160 142
-44.186527 27.158168 925.072479 58 31 23
-44.186527 27.158168 925.072479 58 31 23
17.516899 -189.700925 793.649960 27 22 22
17.516899 -189.700925 793.649960 27 22 22
-5.601131 140.309680 819.678974 175 144 134
-41.509637 112.981844 917.852116 89 67 50
-41.741616 18.689048 928.811836 73 29 16
16.982485 -175.552845 797.158098 113 94 106
17.201328 -178.708613 797.519255 112 94 110
23.134795 -185.240328 794.587994 105 91 111
22.332326 -212.241459 800.397110 119 92 99
25.492179 173.316526 759.187269 116 87 82
25.059262 -183.086562 799.724340 24 22 24
27.180061 -186.452389 799.035931 97 81 88
25.967899 -217.618036 806.970978 55 41 53
26.964661 -198.716962 804.108238 66 52 61
-7.203751 135.045624 876.061916 129 98 88
30.120608 -179.759133 810.250092 62 43 63
33.738530 -198.930514 811.788845 68 53 60
33.738530 -198.930514 811.788845 68 53 60
34.305945 -180.391955 815.408134 62 47 61
38.011429 168.359149 774.553871 125 95 84
39.032897 -199.220967 815.399170 71 55 66
34.630302 -81.992114 821.702290 31 23 20
38.866270 -180.227590 820.497894 75 53 70
40.781635 -215.756679 821.204662 122 104 118
43.748060 -219.911647 823.380375 31 24 23
43.180212 -213.100028 824.546337 61 41 47
44.171938 -211.401939 824.941349 72 62 65
44.304481 -214.524126 825.052452 109 89 104
54.933167 -170.984697 788.615465 75 53 70
29.913568 159.387088 826.786137 118 90 83
45.271322 -212.245774 825.190639 49 35 39
45.867538 -206.285262 826.321793 62 44 54
47.233483 -215.502548 828.038120 102 82 99
47.858953 -217.979169 827.885723 99 79 94
50.195855 -207.666898 828.517246 51 35 41
51.521981 -196.629655 828.820515 122 105 129
52.303839 -209.792900 830.297184 116 94 108
52.914256 -206.264782 830.427361 60 43 52
53.805625 -207.531977 831.107998 123 103 114
54.141712 -199.904013 830.977440 115 102 126
55.308467 -202.017784 834.865952 61 47 53
58.338606 -199.890482 838.299465 136 119 142
60.208833 -233.293986 845.037556 142 125 137
59.865850 -194.901454 843.183041 123 102 126
61.240417 -219.519877 850.317669 132 113 129
67.806321 -168.251812 851.210690 138 115 126
67.890358 176.954889 806.303310 184 152 138
70.445830 -196.038103 851.572227 51 38 48
74.701267 -201.938009 852.840710 148 124 134
73.427588 -166.858578 854.964256 88 63 73
75.718391 -200.289154 854.085064 89 64 69
71.504939 -158.125341 864.585495 40 34 38
74.425441 -172.798300 855.868626 136 121 124
76.592869 -179.243743 852.931976 128 109 130
77.867115 -192.722881 860.703659 103 83 96
80.813360 -240.326095 873.674488 137 110 126
83.464128 -181.171858 859.204578 150 126 122
52.363884 116.237617 947.406483 110 84 78
84.153914 -225.172591 881.034565 204 172 168
85.273665 171.931720 827.082634 184 148 132
86.227882 -140.702510 878.150082 39 33 34
86.488277 -140.650105 877.473736 39 33 34
93.886518 -236.421943 886.099815 175 139 134
95.434862 -153.482723 874.740314 146 119 125
79.075992 -2.530663 933.415604 111 91 85
94.572645 -139.057767 899.057388 94 68 80
104.044247 -166.726172 879.686546 90 91 95
100.569236 174.206674 843.557644 186 152 134
103.778875 -128.256726 885.064983 96 70 82
101.816046 -77.707899 901.410389 96 75 74
101.816046 -77.707899 901.410389 96 75 74
99.275506 53.309977 905.611992 134 108 98
101.859462 -9.638766 914.116096 124 96 90
106.997275 176.235139 866.599655 76 48 43
107.889104 -28.517365 900.077343 38 31 33
113.998938 -99.751627 892.541599 108 80 91
115.395069 -93.580437 893.505383 102 77 87
116.759074 -42.448467 884.103203 39 27 29
118.435431 -250.339174 915.716648 178 138 132
117.157578 -55.226392 889.300537 109 90 106
117.825258 -62.825823 890.892220 128 106 114
118.396497 -72.919959 891.369247 127 102 106
118.357754 -67.965692 892.838287 102 75 89
113.499236 86.773330 890.420437 62 49 61
120.137310 -143.474007 900.623226 193 164 157
119.445562 -36.350834 884.911537 115 96 108
119.459248 -36.296928 884.882927 115 96 108
119.593513 -32.468027 885.687160 35 29 31
119.593513 -32.468027 885.687160 35 29 31
119.731414 -71.899199 894.887543 165 143 146
120.150328 -54.708439 893.236637 107 89 107
122.784674 -133.522725 900.608444 100 93 94
123.238778 -136.772227 901.793575 196 164 156
121.636629 -55.955529 894.933319 59 42 55
119.401181 22.171758 893.376923 63 49 56
125.137079 -131.803632 906.375313 203 171 163
126.590872 -142.042482 901.530170 195 165 160
126.814830 -249.179149 924.807358 189 149 140
125.200474 65.389377 884.364986 136 118 122
125.895786 77.099556 881.327152 139 122 125
127.246618 150.473726 861.814976 144 124 119
127.745974 1.355014 897.888756 157 134 135
128.054452 55.445719 887.523270 151 127 131
128.087640 177.136648 863.607216 125 107 115
130.449879 -60.016710 899.497604 44 35 39
128.656638 168.107843 863.850975 158 141 143
129.892552 166.155326 866.690540 166 147 144
136.713493 -64.905947 903.250313 122 103 100
137.251616 -55.769879 902.812195 89 81 75
135.065246 167.446578 872.542000 96 76 72
138.277566 -14.200918 906.264114 57 48 46
137.376428 96.540701 893.918324 157 129 126
139.756000 184.766781 875.641632 73 52 51
140.630531 166.535938 877.781487 131 110 102
143.207443 -18.900234 909.664154 89 76 85
142.570698 12.735145 908.571339 159 137 138
145.626593 -82.744032 922.898865 204 174 169
145.071459 -20.628981 912.444210 191 161 153
144.111240 44.686630 907.950974 192 162 155
144.669759 18.608706 910.832214 188 158 152
144.669759 18.608706 910.832214 188 158 152
146.283114 -16.995089 917.103767 196 161 150
146.301687 -10.848903 917.016602 117 98 114
146.013761 41.725308 909.075260 194 162 156
146.013761 41.725308 909.075260 194 162 156
149.246120 -2.086710 918.231869 205 174 166
147.846842 184.633458 885.775661 97 77 70
149.717236 10.572511 920.380116 202 172 169
150.392687 10.879303 918.197823 202 172 169
153.546441 -3.376133 920.851994 214 177 168
152.249193 120.108616 906.353283 135 134 121
154.357576 54.347575 908.821297 209 175 162
155.160797 185.846174 894.092083 75 56 50
155.958176 169.524670 895.574760 118 99 92
158.179271 108.303177 915.957355 99 57 56
161.296344 88.064569 921.823406 150 120 130
162.673557 96.141064 921.812344 255 235 231
162.673557 96.141064 921.812344 255 235 231
162.592554 102.047765 921.219158 255 229 221
165.108573 99.503791 924.825001 99 59 49
165.278745 122.043538 918.994904 94 93 89
180.798292 -240.792680 983.088684 159 134 135
176.766896 117.509162 936.078167 208 176 164
185.851872 -230.180192 985.715103 166 149 153
185.851872 -230.180192 985.715103 166 149 153
188.591027 -182.883251 984.978676 176 139 135
184.364021 184.563208 924.485207 129 108 107
185.380697 132.884550 935.443687 146 119 109
197.090793 -237.897444 1000.983143 175 141 140
193.748152 -20.447139 972.749043 169 132 132
195.420074 -74.316812 986.036110 209 176 170
200.460196 -99.969280 992.963314 210 176 172
202.469993 36.599812 986.172676 223 186 174
206.804228 -76.984239 992.255974 131 105 91
209.039760 -100.012660 997.739601 185 149 141
209.172869 -107.789171 999.993038 135 99 89
209.856987 -110.809255 1000.971985 191 155 146
209.908009 -110.731411 1000.755596 191 155 146
207.640076 129.427314 943.937874 53 34 26
209.419417 127.724910 943.652344 141 100 77
213.879371 -27.208576 995.799541 186 149 137
216.295385 -67.371213 994.468212 37 29 28
218.072867 -113.576567 1005.985641 79 57 46
212.649417 110.165584 967.409611 203 169 156
217.468905 -80.043346 999.059200 56 45 39
214.596629 123.212457 951.281452 88 53 40
213.882065 164.330184 939.855671 109 86 79
216.704392 -0.214710 992.528248 63 44 38
214.938855 126.127160 951.267052 71 37 24
214.938855 126.127160 951.267052 71 37 24
213.411117 184.595048 947.035408 60 39 34
218.541121 -36.438134 1002.998447 96 75 67
220.240593 7.105507 969.222450 133 101 86
223.507547 -169.914067 1023.333073 196 157 153
219.805408 -5.777749 997.069645 178 142 132
220.925522 -25.727612 1002.119350 209 171 159
223.522115 -100.572693 1004.858303 137 110 113
219.452858 51.352882 996.777725 194 160 148
225.811625 -146.832824 1022.291946 58 40 34
227.603245 -152.034569 1021.742249 67 49 39
220.677662 100.004661 987.905788 195 162 153
228.448558 -174.923623 1028.614426 226 188 181
222.665310 87.171692 983.596420 139 111 108
222.665310 87.171692 983.596420 139 111 108
224.736881 28.128323 998.386955 40 29 35
229.912925 -149.895668 1022.714901 120 93 84
222.417927 166.826165 972.383690 127 97 94
227.514601 25.708598 998.041821 133 109 97
233.400226 -173.414528 1036.074638 202 164 150
232.283711 -113.451827 1025.681114 173 147 146
225.050163 164.090061 974.904823 133 107 105
229.215074 21.663718 999.185848 155 130 126
235.107708 -160.803592 1032.682037 103 81 77
235.611534 -188.006496 1041.723728 196 166 157
235.850072 -187.753522 1040.339470 196 166 157
227.379179 175.302768 972.612953 60 43 35
231.690979 44.471711 1007.073116 85 59 74
231.690979 44.471711 1007.073116 85 59 74
233.912253 -29.381204 1017.067909 129 108 111
237.435460 -52.052748 1026.459122 129 105 115
240.034175 -120.487273 1039.455223 94 69 81
242.313480 -181.093824 1041.105270 81 61 55
238.430142 -49.739674 1028.687859 47 32 43
241.818523 -135.206926 1038.554955 139 114 125
241.507149 -126.523638 1038.574886 97 68 81
241.507149 -126.523638 1038.574886 97 68 81
239.247227 -47.797590 1039.773369 96 79 89
239.635706 -44.639459 1039.905167 58 41 57
244.440603 -154.524016 1041.751003 134 108 123
244.066358 -133.811069 1044.736099 69 47 59
246.587825 -203.996396 1053.361320 207 172 162
245.440316 -152.487707 1045.776463 155 131 141
245.601511 -139.756072 1045.253754 93 64 72
246.774626 -150.778258 1046.377563 107 78 89
250.834823 -152.177632 1053.163528 92 64 74
251.354241 -162.434411 1051.582813 97 69 83
256.066442 -131.060779 946.094990 139 114 125
245.063138 184.900427 903.716946 58 41 36
253.774285 -153.699374 1055.365944 140 115 125
255.486107 -161.063552 1058.465576 128 104 113
256.949449 -163.725460 1061.519527 98 72 81
257.571769 -174.039912 1061.619091 103 74 89
256.369591 -128.967857 1134.493828 172 144 146
259.253502 -171.662891 1062.673283 142 118 128
260.670924 -179.399323 1066.106892 148 121 142
262.652397 -219.206500 1072.041225 204 169 156
257.240295 -50.901002 1175.691891 128 103 102
263.699508 -174.673653 1071.742535 93 63 74
258.498192 -57.889342 1176.650810 144 115 116
253.531265 172.408783 947.860718 79 54 45
266.119552 -218.042612 1077.464294 126 96 81
259.599710 -50.159842 1178.211403 71 48 51
265.374160 -183.705103 1070.880318 99 69 79
265.908170 -178.621769 1073.015881 135 108 118
263.000512 -47.874212 1183.540249 100 79 73
269.978142 -225.707221 1082.139492 205 172 160
258.266377 183.617723 888.646507 82 57 52
264.624381 -49.521008 1183.790112 72 44 44
261.762047 35.889962 1174.497700 87 46 30
270.890069 -203.707385 1074.844837 76 56 55
265.028930 -46.149129 1187.240887 49 34 36
270.274282 -170.795596 1076.091766 153 129 136
271.473908 -183.730292 1081.523609 94 65 78
264.006519 26.631346 1177.343750 106 58 46
264.006519 26.631346 1177.343750 106 58 46
268.995762 -114.950919 1202.843285 122 94 98
267.856646 -47.175527 1189.542389 108 83 81
267.856646 -47.175527 1189.542389 108 83 81
273.636937 -192.337000 1081.661987 91 60 73
266.393042 20.644855 1180.114079 255 216 202
269.458556 -48.899916 1189.397430 74 45 48
270.079231 -45.369375 1192.228127 50 36 38
268.440461 26.847175 1182.718372 116 56 52
276.660824 -208.860087 1081.811428 80 59 56
277.126408 -185.696316 1087.690067 47 33 35
278.061485 -189.356601 1088.475609 131 105 111
276.751876 -76.127523 1509.898758 146 122 120
277.765608 -145.293379 1162.858582 124 97 104
274.981689 -44.828740 1196.341228 39 27 30
279.670763 -191.547358 1091.649151 96 65 78
282.779527 -273.363662 1103.364468 186 143 135
278.459287 -126.350462 1205.725384 36 28 32
279.311800 -121.739757 1207.191658 113 92 91
274.436069 26.845688 1186.189270 58 37 29
282.852960 -213.686228 1089.643955 73 55 52
282.526660 -200.261736 1093.433094 80 55 67
283.503842 -197.368038 1094.626522 130 104 117
283.357263 -156.747234 1144.299984 129 105 114
286.452579 -231.189966 1101.974010 103 72 59
285.323977 -192.832386 1097.637177 39 28 32
282.092524 -44.274664 1206.365395 54 38 40
289.050031 -268.417716 1110.743427 186 141 135
287.168574 -196.282423 1099.869728 123 98 102
272.759867 179.800975 933.575439 115 83 70
287.334633 -159.839880 1147.962189 127 105 113
289.123964 -217.760229 1096.971607 58 42 35
288.621140 -198.223114 1101.480198 98 65 75
288.621140 -198.223114 1101.480198 98 65 75
286.205411 -59.898609 1212.443542 40 27 25
290.149331 -195.904028 1105.929089 137 112 118
290.149331 -195.904028 1105.929089 137 112 118
291.846871 -219.751477 1100.980949 70 56 45
292.576075 -203.533840 1106.078148 143 119 125
293.934894 -198.392022 1107.292652 37 24 29
292.597842 -42.436409 1218.947315 51 36 38
296.273947 -102.111077 1223.979187 128 97 103
298.274302 -222.651553 1108.223343 47 36 29
297.790003 -203.266311 1112.442017 88 59 72
297.790003 -203.266311 1112.442017 88 59 72
280.594730 184.704602 916.234779 173 133 120
298.079062 -161.507082 1161.728477 106 85 94
301.579499 -258.495831 1117.430019 145 119 132
298.644900 -90.914476 1228.635502 122 95 94
302.650809 -269.286060 1121.354675 164 138 143
301.364684 -224.108315 1112.905502 52 38 36
301.937819 -207.907581 1117.936134 126 103 120
303.232479 -202.853823 1118.580151 37 22 29
306.150484 -263.246131 1126.092815 103 73 75
305.215812 -221.656346 1119.572830 43 32 24
305.490351 -229.068422 1115.275955 78 48 42
305.490351 -229.068422 1115.275955 78 48 42
304.537988 -93.920642 1233.696175 33 26 29
289.722610 174.378788 1013.771725 113 79 75
307.876396 -251.502991 1130.101299 165 140 128
308.367610 -262.827873 1133.364105 92 59 57
308.868313 -266.577935 1134.841633 193 167 153
308.018899 -246.215129 1129.909706 157 131 126
302.179551 -174.758446 979.697895 98 65 75
309.676075 -236.902976 1127.248573 176 148 137
311.119628 -245.153308 1130.337429 58 38 30
310.274172 -147.174954 1201.170540 129 99 104
312.782621 -260.200167 1138.290024 51 33 25
312.782621 -260.200167 1138.290024 51 33 25
312.220764 -249.109435 1132.457352 179 155 139
312.154770 -242.378378 1132.990932 145 116 112
311.917162 -214.286137 1130.284214 88 60 68
311.903906 -85.697472 1246.721077 39 29 30
313.428140 -195.625198 1147.250748 130 104 121
315.368724 -242.915082 1136.391258 73 46 41
313.868785 -65.209013 1246.503639 48 35 37
316.301012 -256.038451 1139.006329 136 111 95
313.653994 -56.298053 1243.139744 50 34 37
315.610909 -235.497737 1135.699368 110 79 63
314.814782 -200.710940 1137.009144 48 38 40
305.633235 156.710207 1210.897827 40 24 21
314.345646 -42.601562 1239.968395 78 52 61
317.888474 -254.172635 1140.788174 80 55 44
315.245843 -39.331791 1244.457150 53 36 41
295.295835 190.141308 931.197262 103 76 67
318.583798 -247.405362 1139.563847 123 94 80
316.879249 -68.018055 1245.621967 122 100 100
318.712616 -235.842466 1137.033749 171 144 125
318.193460 -216.655993 1134.369755 125 94 104
319.671822 -242.230797 1140.442753 58 37 34
320.344687 -258.400035 1140.786076 199 174 162
319.036365 -83.823115 1249.031067 126 96 101
320.585895 -254.263473 1141.499996 174 152 140
317.878771 -40.444896 1246.069717 109 90 95
319.277310 -42.097563 1245.884895 79 52 59
320.186210 -38.651299 1250.002670 49 34 37
322.041225 -220.335984 1143.228149 128 101 108
323.139024 -207.798839 1143.622398 41 28 31
326.819372 -286.993289 1156.451893 159 122 116
327.077866 -231.875277 1143.012524 175 148 133
328.618622 -239.011407 1147.109318 193 166 153
328.938413 -136.343384 1218.919468 141 114 109
327.180982 -22.076513 1257.127476 119 94 95
327.180982 -22.076513 1257.127476 119 94 95
329.692411 -240.015769 1150.759220 182 149 141
327.409959 -6.884328 1255.587578 110 83 86
330.279112 -204.357266 1154.068947 110 85 94
334.590530 -285.994864 1161.824226 198 167 153
333.050156 -208.206415 1155.709648 42 26 33
333.050156 -208.206415 1155.709648 42 26 33
336.464286 -251.608515 1158.176041 136 104 96
336.464286 -251.608515 1158.176041 136 104 96
333.920240 -101.150179 1175.610447 70 52 60
337.058091 -260.532832 1159.458351 164 127 117
339.127445 -292.960072 1167.933750 135 102 86
339.009118 -280.641937 1162.292290 178 149 135
339.038897 -265.716481 1162.888813 215 183 170
339.134002 -265.263414 1161.687851 215 183 170
341.109419 -228.476119 1157.504272 189 163 151
344.960713 -273.841810 1168.013000 167 132 125
335.321712 164.054906 1239.259434 48 37 47
343.712974 -199.468327 1177.262878 36 30 35
343.348765 -206.788993 1167.522335 43 27 34
322.704601 179.031706 1022.748184 126 95 82
346.633744 -238.363719 1174.633980 215 185 175
347.861171 -251.182294 1173.730278 154 126 118
347.861171 -251.182294 1173.730278 154 126 118
347.110844 -233.974123 1167.766571 212 181 173
348.831058 -227.102304 1165.601349 171 146 130
350.342178 -203.925490 1170.794392 127 100 106
322.601199 194.237316 960.122681 104 75 68
353.968596 -196.585453 1189.963150 36 30 34
357.072210 -253.182673 1185.290527 80 48 50
357.749891 -231.962705 1180.262852 94 62 59
359.435892 -250.397062 1187.092209 178 152 141
359.963536 -92.754287 1248.793983 129 98 100
359.963536 -92.754287 1248.793983 129 98 100
363.790059 -290.591335 1199.817085 119 82 69
362.420011 -252.216554 1192.890549 103 77 72
357.598448 39.750624 1249.992752 124 101 104
361.486816 -196.366704 1191.646576 105 82 91
357.931948 73.778737 1246.306705 130 103 97
363.945365 -191.337764 1197.733784 39 34 36
363.573217 -225.139451 1178.672600 183 153 142
363.931513 -199.674189 1190.490913 44 29 36
368.954158 -285.930228 1207.645988 42 20 24
369.359159 -300.522661 1206.283283 162 134 125
368.010736 -251.075840 1202.350044 176 147 136
358.396578 130.541670 1235.991096 90 73 81
357.059574 160.154986 1228.643036 42 30 34
361.738706 67.945206 1247.538948 62 40 41
366.649270 -221.081591 1185.766411 102 75 60
361.770177 83.322203 1245.568562 59 37 38
369.263268 -231.048346 1200.341988 171 141 134
370.074224 -246.913648 1202.561283 173 147 134
369.825649 -243.158388 1200.205994 97 66 64
369.825649 -243.158388 1200.205994 97 66 64
362.031364 109.744692 1243.453312 55 39 42
337.080669 195.039940 977.764034 101 72 66
371.661305 -251.947880 1205.426407 70 44 54
370.968390 -191.117024 1202.213001 110 86 92
370.674491 -195.702207 1193.819332 123 99 105
370.614815 -15.955575 1247.053432 114 83 90
370.614815 -15.955575 1247.053432 114 83 90
372.703671 -176.793265 1209.028149 119 92 97
349.597645 182.718718 1082.306957 128 89 86
374.396038 -229.618382 1202.403164 75 49 44
373.494506 -184.776402 1208.438683 41 33 38
373.699784 -194.255865 1201.839447 43 29 30
344.459391 190.002680 1016.889095 93 66 56
348.201180 183.417869 1051.084995 123 92 82
374.445629 -215.746832 1195.376587 115 95 77
375.657630 -78.875726 1255.583191 52 37 43
374.877977 -212.427330 1198.785400 32 26 27
373.634529 -0.556579 1255.432606 45 30 32
369.688511 119.292212 1241.321564 155 123 112
343.402815 197.268772 984.338284 96 70 64
369.916987 127.099633 1238.151073 60 46 59
380.541921 -257.859373 1206.588078 74 50 49
380.541372 -248.513198 1205.276203 64 43 41
379.231310 -179.152572 1212.987900 41 30 36
371.843982 134.885192 1230.488777 104 81 94
397.766185 100.231314 1481.849194 63 40 49
383.629870 -213.923955 1206.198978 41 28 24
383.605385 -187.577224 1212.497902 45 29 32
383.154535 -23.671134 1242.678547 31 24 27
383.154535 -23.671134 1242.678547 31 24 27
383.154535 -23.671134 1242.678547 31 24 27
386.029387 -215.461278 1204.893970 126 104 93
390.036750 -254.641271 1215.921497 209 178 164
381.378150 130.803716 1237.860489 81 65 74
392.076683 -190.292919 1216.897964 132 108 110
392.584825 -179.288971 1221.934223 45 30 32
392.688012 -169.146788 1223.156452 41 35 36
393.681145 -206.209302 1213.879585 43 30 27
391.562510 4.856152 1254.997349 154 126 112
396.266341 -204.092693 1216.855145 44 33 25
394.870925 -29.891869 1241.544724 126 100 105
399.369884 -201.244712 1219.567108 40 30 28
397.091484 -0.414962 1255.963135 54 39 43
401.134491 -169.902062 1231.411171 45 30 38
398.418927 73.901439 1250.100708 61 41 52
398.581719 82.329631 1248.826122 63 40 49
412.318754 -245.093226 1245.827961 207 173 168
408.893490 -159.500873 1239.600658 39 27 31
409.362173 -162.411582 1236.342525 118 95 101
410.630941 -170.158112 1238.185596 134 110 117
412.270403 -179.687715 1240.424728 44 27 35
407.275629 32.796633 1255.274010 47 31 37
412.892437 -105.752611 1254.029560 57 45 49
404.222727 130.889726 1240.866184 82 67 78
414.125538 -165.868485 1240.144634 130 110 118
375.559044 200.709748 1017.754459 97 71 60
411.307001 -24.642040 1244.987488 31 25 27
415.162086 -135.869825 1243.735600 53 39 42
416.216946 -92.902088 1259.112263 66 47 52
422.791910 -271.830368 1264.757442 183 145 139
416.540432 -147.786677 1246.168423 41 27 31
414.156914 4.379377 1257.320690 164 129 116
409.475851 127.623165 1247.420025 44 33 40
407.522678 171.225381 1220.118523 174 134 122
415.693188 109.910023 1246.347713 157 126 112
415.988159 121.471500 1247.033310 141 112 104
424.150991 -36.736754 1262.870693 62 46 53
425.988722 -118.853164 1256.820869 112 89 91
420.908642 54.950303 1253.289413 60 39 49
423.896456 -13.084041 1257.792664 58 44 46
423.896456 -13.084041 1257.792664 58 44 46
428.805685 -139.221036 1258.689499 82 58 62
429.017448 -121.944082 1258.665943 41 28 30
425.291538 -23.575459 1253.409958 28 23 25
418.010283 133.357143 1236.060047 106 79 98
423.451948 50.157082 1255.510044 101 81 82
429.477882 -125.124633 1255.627537 112 90 94
416.882086 157.271957 1228.392124 115 98 101
421.033525 123.783422 1246.994495 68 45 50
330.884838 164.742947 599.161339 107 76 71
431.071568 -104.448795 1260.650158 110 86 92
430.730295 -95.177609 1258.346367 59 47 50
419.221687 153.994799 1232.469082 124 93 101
432.297468 -113.206434 1257.671165 121 95 104
434.216976 -107.269466 1261.846066 42 29 32
434.838963 -90.148777 1263.666821 106 82 88
434.788847 -79.849070 1260.592842 64 48 54
431.351900 26.507428 1254.901981 112 88 99
431.351900 26.507428 1254.901981 112 88 99
433.616161 -28.704154 1251.201153 111 88 92
433.616161 -28.704154 1251.201153 111 88 92
436.066914 -33.922917 1264.537144 64 49 57
438.495588 -92.447203 1265.793991 38 25 29
437.876797 -74.882275 1265.038204 110 87 89
422.235394 182.392383 1207.951355 182 142 129
446.616077 -148.557103 1272.766399 105 78 68
443.495464 -62.452996 1267.627907 42 28 33
441.105986 -1.739166 1260.795116 111 89 92
441.204596 14.287381 1258.971691 102 81 90
444.651937 -46.974042 1267.473412 48 34 41
433.593464 158.303201 1233.265495 112 89 94
445.639086 -56.580591 1266.650677 123 99 111
445.639086 -56.580591 1266.650677 123 99 111
445.929003 -41.349703 1263.905430 120 96 107
414.342880 199.943519 1099.233627 100 72 66
442.219734 74.950427 1253.567505 109 86 93
445.737314 4.516200 1258.614540 115 90 100
450.281811 -41.627690 1275.117683 96 73 88
443.356657 103.714204 1251.354504 109 89 81
443.833351 97.732246 1250.489616 48 35 36
419.609213 322.789884 1135.987282 91 66 67
446.076488 71.893567 1254.822445 48 34 38
450.397062 28.841203 1263.046646 120 97 92
450.397062 28.841203 1263.046646 120 97 92
436.533356 190.578413 1207.426834 172 133 125
446.732330 94.599563 1250.717735 111 86 83
448.998690 63.880265 1253.606129 116 90 104
449.226332 84.634370 1254.032135 106 89 98
428.517437 200.286722 1142.311764 125 87 81
453.450775 42.135650 1260.427380 35 24 23
417.517805 207.345080 1070.234871 109 79 71
458.876324 -32.391369 1276.057148 51 28 33
453.873301 25.573465 1230.231476 132 108 118
447.699356 154.926693 1241.863251 144 121 131
447.699356 154.926693 1241.863251 144 121 131
452.818871 86.996424 1257.724380 83 62 78
444.211149 186.954415 1224.407101 124 95 97
458.783579 0.399951 1276.940250 47 37 41
446.580505 162.400734 1233.572769 82 64 58
451.753759 97.944629 1252.444649 41 28 26
463.182640 -62.344784 1282.286167 58 37 37
454.805374 102.889895 1255.811501 49 36 33
462.050772 4.583029 1277.712250 208 175 159
457.644939 55.725116 1259.520340 132 108 118
456.134415 99.418283 1254.351616 141 120 106
460.218096 30.003342 1237.781239 53 36 38
468.881464 -91.013736 1288.638020 199 166 149
469.711399 -100.803661 1290.203381 206 173 161
465.790987 -12.769701 1283.288670 108 81 77
430.831289 201.571155 1115.487480 114 82 71
430.831289 201.571155 1115.487480 114 82 71
471.402693 -34.575555 1298.458385 62 51 43
467.447710 16.326824 1281.373501 223 183 171
467.447710 16.326824 1281.373501 223 183 171
463.530731 86.999905 1268.126488 211 180 170
470.440483 -25.332662 1287.397575 172 145 138
462.733269 107.066500 1261.631393 138 85 72
462.733269 107.066500 1261.631393 138 85 72
464.751863 96.388447 1263.490105 146 108 104
464.990044 113.529301 1263.132572 251 243 240
467.742157 94.246298 1271.301842 134 107 110
467.742157 94.246298 1271.301842 134 107 110
465.229654 117.979097 1260.107327 153 114 119
476.620483 -78.057641 1287.302399 197 165 160
463.264275 137.899053 1249.487972 205 174 160
477.399874 -33.580399 1292.263699 74 51 41
478.844547 -31.171489 1300.448036 164 133 116
473.449755 39.756396 1280.750942 207 175 163
469.829655 98.561800 1269.556427 145 92 94
473.098850 39.858595 1274.726486 207 175 163
470.071507 117.931283 1268.667984 131 77 79
442.778826 202.823210 1129.005337 121 88 79
468.632460 151.687491 1244.536591 197 168 167
469.857502 186.677909 1255.207348 68 42 45
466.699886 195.900416 1222.766209 175 137 125
453.195620 203.892088 1141.505432 125 95 84
480.486012 173.413062 1273.818302 113 97 94
480.486012 173.413062 1273.818302 113 97 94
519.026375 -277.954245 1385.038853 223 187 175
485.098219 158.370018 1267.150497 192 160 156
510.336208 -92.060709 1346.002865 168 130 125
488.193798 181.758642 1262.588406 106 78 72
489.877033 159.309185 1266.755199 190 160 159
528.391361 -287.110186 1388.870430 150 119 129
528.054094 -270.555973 1382.952976 148 119 129
532.909155 -313.280606 1399.557781 234 197 178
532.909155 -313.280606 1399.557781 234 197 178
533.830452 -297.444916 1397.178936 233 194 178
521.992636 -127.702010 1362.855148 164 126 121
496.822309 162.917101 1274.137497 71 39 29
496.279287 197.044253 1270.791912 77 50 38
498.823214 167.200279 1275.474072 112 86 68
539.341497 -303.199673 1403.132343 158 120 129
528.112459 -131.418848 1359.012222 170 140 126
503.076935 168.969691 1281.102753 55 31 22
508.790922 158.359039 1307.023239 205 175 163
525.835276 -1.440383 1353.258419 200 169 158
494.832897 206.577039 1221.227360 176 136 123
535.452700 -24.164353 1376.490879 209 174 161
514.670467 201.456189 1306.440258 81 58 49
552.886915 -243.902063 1412.211800 44 29 32
541.173840 -43.504515 1379.107761 196 159 151
545.488405 -92.817760 1388.240147 170 133 134
554.856443 -240.670490 1410.216713 84 73 73
538.876629 8.758812 1367.228508 118 95 80
541.097116 0.933938 1374.375153 67 57 46
539.689493 18.472280 1367.150784 165 129 114
532.061911 133.328235 1347.990227 212 179 170
550.967979 -73.679578 1399.627590 209 171 159
559.519482 -243.519974 1413.675785 89 79 73
539.729404 98.215312 1360.400677 213 178 168
528.258371 200.767040 1322.674656 130 106 98
528.258371 200.767040 1322.674656 130 106 98
529.104519 196.375036 1325.856590 69 44 39
545.246029 8.507132 1369.370747 130 109 97
548.995924 -16.418988 1381.164932 59 42 34
540.017605 136.830032 1354.075241 124 91 111
569.210196 -239.414096 1428.839397 100 80 78
551.122522 3.882680 1378.853130 31 23 21
541.781282 148.052025 1356.434727 170 118 108
538.807249 177.271497 1344.396591 73 59 52
538.603067 176.958275 1342.500210 73 59 52
535.770130 204.635572 1331.649113 99 70 69
542.578125 167.565489 1354.114532 105 66 69
574.050760 -232.017183 1437.948990 186 154 142
573.326254 -239.583874 1432.766056 70 53 53
542.013836 181.916952 1345.971203 121 109 106
542.013836 181.916952 1345.971203 121 109 106
562.988997 -106.699157 1399.072075 215 179 167
546.691418 151.860011 1360.863972 254 240 236
546.691418 151.860011 1360.863972 254 240 236
576.173162 -238.145494 1435.166073 91 74 75
547.249556 164.547825 1359.949970 254 238 232
549.299860 158.505070 1362.450981 150 86 81
562.406778 -20.360325 1394.005489 138 112 117
581.267977 -240.868592 1438.625622 82 75 71
553.206968 153.995013 1366.216660 145 107 115
589.038610 -240.093517 1448.108482 99 84 82
555.093098 199.075961 1355.060005 77 52 47
596.642590 -239.164639 1457.258320 101 89 83
594.814491 -180.709541 1456.125546 209 175 164
612.101650 -265.841937 1514.294529 37 19 24
590.761662 -114.445531 1443.529415 209 178 163
589.663315 -108.534706 1437.285423 93 74 68
594.212961 -127.107573 1451.818848 213 182 168
561.586809 223.918581 1360.521221 76 54 44
614.218378 -323.698020 1507.984066 52 34 34
604.714251 -228.495264 1477.023602 209 177 161
-141.745532 79.467404 761.976910 195 153 139
-142.646229 52.654123 766.614437 197 155 131
-142.916214 39.293331 768.804646 194 153 127
-53.047603 -156.705189 724.851227 87 73 87
-57.751286 -223.805237 739.159536 148 123 126
-33.016559 155.201423 682.381535 106 86 92
-42.717370 75.496417 703.991461 134 107 100
-43.159389 -67.396331 720.272207 49 36 39
-50.287163 -212.208486 746.309090 149 131 142
-34.877092 83.566403 704.369402 54 38 35
-41.675431 -45.544010 725.854635 73 48 53
-34.627166 83.556694 704.145145 54 38 35
-81.487066 -74.867654 791.517687 114 100 102
-25.397688 144.287372 692.256403 61 34 23
-43.009004 77.117181 725.278616 130 111 115
-20.966622 159.467781 693.589211 75 58 71
-34.137562 -86.181527 738.747931 174 150 152
-34.137562 -86.181527 738.747931 174 150 152
-36.088550 -228.465533 762.612677 140 116 121
-27.043101 -65.079963 737.320423 46 33 36
-29.297897 -197.133052 757.086658 200 169 161
-18.192343 159.194016 718.096209 153 124 111
-91.766787 -115.910888 862.033367 41 28 27
-15.323716 157.536113 739.735317 113 88 72
-15.323716 157.536113 739.735317 113 88 72
-7.738759 -234.370732 792.352343 162 127 115
-1.057833 -222.681141 796.721411 210 176 167
-42.768997 121.493614 837.183762 135 108 100
5.445595 -206.818676 802.156639 158 123 114
10.342368 -220.002103 803.090382 114 85 89
12.477493 -205.978060 803.020573 62 45 54
13.882789 -191.408765 800.178051 24 21 22
16.754699 -222.788191 806.598663 144 120 129
-54.923499 33.528763 921.465111 62 36 28
-70.587695 28.577033 959.856415 55 29 19
21.972425 -180.621719 813.270950 67 48 63
-49.094775 33.908150 926.808739 228 155 136
-46.960676 27.993801 930.274773 55 29 19
24.752441 -229.851079 823.439980 58 39 47
24.752441 -229.851079 823.439980 58 39 47
32.624245 -232.445955 830.853748 140 123 132
39.797503 -237.540197 840.190887 120 97 111
42.805836 -241.755843 842.346859 53 37 45
42.805836 -241.755843 842.346859 53 37 45
45.637372 -203.267884 835.639572 49 33 42
48.060229 -198.332655 836.016273 115 100 124
49.315310 -199.985051 837.546635 70 52 67
47.555324 -237.866163 845.887756 34 28 29
47.468355 -245.380473 847.691536 55 36 41
50.482529 -232.108617 846.424580 130 110 127
51.769549 -240.977287 849.123001 114 96 107
52.349311 -235.158324 847.612667 39 31 30
54.189724 -234.850740 849.821758 93 84 89
55.053383 -233.505392 853.472996 43 27 31
55.053383 -233.505392 853.472996 43 27 31
56.529182 -206.612849 848.956585 82 65 69
54.991567 -228.111649 855.975914 135 116 133
57.099420 -215.112853 850.746536 67 49 58
65.386003 -223.749781 861.466694 59 42 47
65.677887 -223.613119 861.058998 59 42 47
67.705292 -192.474282 857.734489 44 32 39
69.404119 -218.831468 867.043304 127 102 109
73.787826 -248.656726 870.326996 139 123 126
74.732381 -182.486582 861.270618 140 124 141
78.832990 -161.470711 868.058872 88 62 71
86.763406 -153.200471 874.556255 87 60 68
88.302904 -213.248467 887.140083 171 137 128
89.852828 -149.214590 878.086948 84 59 67
95.745260 -169.075549 878.790092 131 109 120
99.833041 -180.813169 881.636429 203 169 163
107.531464 176.707470 846.454144 140 113 102
104.963350 173.249674 856.845474 64 45 41
106.480563 -254.141259 913.740540 173 133 129
106.480563 -254.141259 913.740540 173 133 129
95.876992 -5.212163 919.923782 115 93 88
97.301137 -5.379616 917.631149 115 93 88
110.588551 -253.253222 916.909409 179 139 133
114.307463 -86.613739 893.933010 127 105 115
113.782656 -252.595139 920.980835 169 130 126
116.057348 -150.374293 904.366302 194 164 159
116.890740 -149.951863 902.983570 194 164 159
117.941737 -62.028074 893.904591 88 62 70
118.042529 -252.226901 925.464344 175 137 132
122.960758 -121.533287 900.130939 110 91 94
123.702025 180.331695 856.393528 64 44 42
122.170317 -23.762794 890.545750 40 27 34
121.485007 -251.473832 928.458881 177 141 138
126.985335 27.584785 888.838387 149 126 130
131.214774 183.120406 857.805920 62 46 49
131.319094 183.043432 857.638454 62 46 49
131.537032 175.867248 860.543156 69 53 58
129.437447 -134.700084 917.399120 172 137 131
131.291008 -124.431968 917.882347 211 178 167
135.519636 181.724608 865.389729 62 44 41
136.326909 -65.340513 904.397011 114 98 96
140.609980 144.755971 875.613689 113 89 93
139.351082 118.209124 885.554028 138 125 113
144.940150 18.491869 909.967899 182 150 143
146.572971 -48.182899 921.287537 29 24 25
146.572971 -48.182899 921.287537 29 24 25
154.419637 -50.441176 929.982662 197 164 155
155.713737 -130.552900 944.361877 172 135 127
163.152373 146.141291 900.649071 108 88 86
165.925944 99.315369 921.948147 82 49 36
168.585384 93.684775 925.556183 165 119 115
168.585384 93.684775 925.556183 165 119 115
177.115405 123.619509 927.863216 115 103 102
184.608459 -231.863046 990.439415 160 143 146
184.976566 127.654552 932.183552 59 50 45
186.290812 132.651341 931.881046 141 115 104
187.310719 -81.272501 981.391335 201 169 162
187.724876 119.205987 944.548893 201 169 156
194.766450 -20.594105 968.442917 163 128 125
203.513837 42.760926 971.269321 177 142 131
204.696608 -53.963512 989.098454 175 143 129
213.371134 118.985236 926.285362 95 68 59
210.195065 -126.237595 1005.438805 193 162 152
205.997229 80.620986 982.413483 193 161 151
211.062980 128.523219 954.764462 65 56 50
216.014147 -73.161870 992.812157 102 79 74
213.829350 -27.571014 995.274925 179 142 128
216.490245 -33.983707 997.852039 63 47 42
219.505739 -67.183864 997.840881 36 27 27
219.787574 176.963580 962.320709 58 43 46
223.276138 -193.137431 1027.413177 166 127 121
217.001843 14.116056 1013.422585 117 91 87
224.270988 -136.882687 1017.181587 67 48 42
220.804954 51.543081 993.095779 199 165 159
224.261045 -153.752935 1023.800182 117 80 65
225.921869 -177.704620 1028.423023 177 137 126
222.112846 108.713973 985.480881 194 165 163
225.791073 -65.296882 1007.490158 125 104 111
224.952292 111.602879 986.424828 101 82 100
226.946616 120.690656 989.309025 151 128 136
230.672717 -73.692304 1022.246838 69 53 70
230.461001 28.664067 1008.456898 52 38 36
231.157637 164.070642 976.875877 127 99 97
231.500554 51.619518 1008.076763 119 100 117
232.164979 103.512251 996.625614 142 122 131
234.375763 11.301012 1006.496143 72 53 47
234.833789 -68.050683 1023.527241 78 54 67
235.803080 -97.811276 1028.884220 86 61 79
235.162520 -87.803346 1031.014061 171 149 153
234.869552 -46.151179 1023.593330 120 100 107
234.982657 -23.739596 1018.129444 77 54 67
234.431505 29.140213 1009.472370 132 110 115
234.352469 14.464597 1014.717484 156 132 132
235.546613 -41.905585 1030.719376 121 99 113
237.560320 -46.424779 1029.534912 67 49 61
238.554716 101.830792 1004.501915 165 145 144
245.455790 -166.560543 1044.292450 154 127 127
242.323542 -49.280515 1041.378021 39 32 41
247.762585 -171.618855 1046.979523 77 56 59
257.719755 175.778842 913.228130 71 47 42
251.344323 -211.194611 1061.944294 214 179 171
252.073216 -210.605550 1059.834003 214 179 171
260.967803 177.027071 912.884426 154 119 109
255.191493 163.278401 962.063885 78 54 44
255.107689 -158.247054 1057.446575 52 36 43
260.068536 172.373319 943.843365 156 120 108
257.469058 -174.542332 1062.030315 105 77 91
259.803557 -164.051485 1063.770676 136 110 127
265.190268 -184.453702 1071.829510 98 69 80
268.215060 -201.405215 1070.510387 77 57 52
279.535270 186.111176 900.378418 101 72 66
250.030494 -58.099401 1193.638134 111 81 84
273.739886 -206.846046 1077.895069 67 48 48
254.450321 -47.979480 1179.098320 52 38 40
261.561108 -128.960621 1174.951458 73 56 64
257.390881 -48.650205 1181.977367 103 82 80
276.144838 -183.055294 1089.717960 157 136 137
276.734281 -178.647995 1090.039921 157 135 143
279.720449 -211.793804 1084.989834 68 49 49
279.720449 -211.793804 1084.989834 68 49 49
259.807348 -47.236428 1184.847736 47 32 35
282.486057 -252.184510 1100.567055 168 129 117
264.995742 -94.764799 1193.094635 104 70 69
282.566476 -187.535751 1093.402863 167 146 143
283.270955 -188.409603 1093.348694 145 116 124
284.530163 172.742975 972.924232 103 70 61
286.051989 -216.271973 1092.506695 64 45 40
284.250474 -184.110260 1096.867943 152 130 134
290.256500 -195.998394 1104.665184 132 107 116
290.949869 -192.851448 1112.833881 66 48 59
294.705796 182.837331 955.123615 105 74 66
290.212059 174.275541 1009.722900 102 72 68
296.080351 -222.215462 1110.215855 66 57 59
299.105525 -201.189947 1114.467144 134 108 124
302.086377 -227.667665 1109.502697 143 118 125
301.824546 -211.345601 1116.241169 85 57 64
285.765338 -88.405490 1221.195412 45 31 29
285.042214 -44.775820 1213.690472 114 91 94
286.073041 -79.774433 1219.573879 44 28 30
302.009058 -200.175810 1121.613216 101 76 87
302.009058 -200.175810 1121.613216 101 76 87
302.945042 177.999425 995.942879 97 68 59
307.990146 -235.083747 1125.335407 119 88 72
309.353352 -280.962253 1137.924099 114 82 69
291.659975 -39.049053 1222.727680 116 89 93
312.848663 -260.350037 1136.426258 52 32 27
311.984205 -214.707732 1128.760338 82 55 67
296.631861 -45.171401 1223.162556 73 49 56
314.135337 -277.518368 1141.083622 198 170 158
313.467646 -239.637661 1133.061790 175 143 131
313.634825 -195.601976 1144.320107 125 101 118
301.008224 -43.648461 1227.967644 65 43 47
317.541218 -240.447545 1137.485409 147 121 114
320.079947 -277.931905 1145.398521 131 99 98
308.278036 -127.173626 1224.405575 46 37 39
318.614507 187.294197 980.576611 111 75 68
318.797636 191.418421 979.907799 95 64 60
322.976875 -216.533160 1141.016483 89 61 65
322.897100 -213.797855 1140.892124 134 103 108
324.600482 -231.171727 1135.123253 170 142 131
324.750781 -202.061367 1150.030994 38 30 33
313.508344 -75.507027 1251.228333 44 30 31
329.850554 195.089364 963.537979 101 74 65
336.593652 -251.351976 1154.884815 138 110 97
334.604645 -201.419401 1162.029266 38 31 34
331.438136 186.458719 996.234512 119 84 73
328.929067 -136.681938 1219.002247 141 112 108
339.052367 -283.973241 1161.735821 123 90 78
339.052367 -283.973241 1161.735821 123 90 78
339.250565 -292.417908 1163.923645 146 115 99
339.740276 -273.391485 1159.035015 182 158 141
335.167480 -92.938155 1171.387005 49 37 39
327.186370 -15.082724 1259.662056 110 84 84
340.973973 -203.851938 1168.652153 107 80 95
339.825177 -168.845320 1197.939301 28 22 23
339.058185 188.547862 1004.724979 93 65 57
339.481497 188.253200 1003.127575 93 65 57
327.945590 95.623279 1248.255634 103 79 80
347.928524 -251.587558 1169.946957 165 139 132
347.928524 -251.587558 1169.946957 165 139 132
344.604850 -178.436470 1187.590408 115 90 95
342.410421 184.635913 1006.190872 171 131 119
350.609112 -236.024237 1170.265388 160 130 124
351.426744 -214.672709 1170.258236 160 130 129
353.733134 -285.612273 1189.803505 216 185 174
354.042149 -204.286361 1176.154327 49 35 38
357.798719 -232.016301 1177.507591 91 61 54
343.190384 131.501389 1239.326096 110 88 93
360.671473 -256.073809 1186.869335 189 163 149
360.958338 -233.415008 1182.707310 180 153 148
360.958338 -233.415008 1182.707310 180 153 148
345.068049 116.321898 1241.923046 109 81 91
362.359691 -251.906562 1193.051624 102 79 74
362.930846 -257.508326 1194.634342 100 69 62
361.830735 -205.714250 1181.527805 132 107 120
364.081645 -222.634697 1180.602455 177 150 134
353.750730 183.488297 1084.202480 104 80 71
357.614827 191.120625 1023.030281 95 70 62
366.138601 -207.413602 1188.465691 75 51 61
367.851710 -254.092121 1198.578835 119 89 81
367.769885 -225.255847 1186.745358 116 85 72
368.448853 -234.396458 1194.293499 83 52 41
370.729423 -195.762765 1190.564919 118 94 102
357.674384 129.545116 1242.538166 48 35 43
363.871169 -22.996569 1242.173958 44 31 33
358.350110 131.693232 1237.009144 86 69 77
374.920011 -212.453413 1195.095634 36 26 27
377.401829 -215.753412 1195.262051 143 115 104
376.751685 -201.505733 1199.999809 74 48 56
372.615385 -118.995976 1241.761017 84 63 68
381.073546 -232.868552 1198.346901 58 37 36
369.636464 120.373201 1242.987728 150 120 109
371.796823 135.478580 1232.271576 96 73 86
375.161099 40.827659 1252.398682 65 42 52
386.860299 -219.441295 1201.794720 141 118 121
372.999239 144.552934 1230.473328 100 75 95
390.033937 -287.575459 1215.844059 204 173 163
389.710736 -209.237266 1206.110859 38 26 24
380.539680 125.045288 1244.579220 96 75 77
381.351590 131.890678 1238.955784 79 65 77
395.619607 -213.138938 1212.746239 101 77 65
394.740558 -127.221465 1240.818501 129 98 91
391.574979 4.886543 1254.967022 153 123 111
400.427103 -115.601265 1247.906780 100 76 86
394.804525 145.240474 1066.680813 61 43 46
406.208181 -156.382751 1234.649372 117 90 93
406.971121 -2.425736 1257.775497 47 33 36
413.492250 -174.059916 1237.059402 122 94 104
403.583574 123.911560 1246.461678 106 85 81
407.015133 129.376829 1245.090485 31 19 24
417.402124 -112.394285 1252.565861 137 114 114
417.402124 -112.394285 1252.565861 137 114 114
404.816818 205.365729 1048.962879 105 76 71
414.159632 4.318428 1256.658554 161 127 113
406.543970 198.787796 1084.705734 115 82 72
406.543970 198.787796 1084.705734 115 82 72
420.089769 -132.368445 1247.754669 102 77 81
420.334435 -140.315259 1243.699265 110 87 92
415.691614 111.200762 1246.300888 154 122 108
423.902178 -89.629865 1257.211971 141 118 117
423.902178 -89.629865 1257.211971 141 118 117
426.269150 -127.633500 1249.525833 113 89 95
426.447582 -109.935164 1253.835964 59 44 50
416.879129 158.471835 1228.920555 111 94 98
423.879242 -13.166262 1256.362629 55 41 43
412.973213 206.190848 1060.205078 106 77 69
425.274324 -23.618406 1252.033234 28 19 24
421.426344 95.267761 1250.524521 63 42 41
421.256876 120.188725 1248.883247 57 32 29
433.537912 -125.648832 1257.446003 76 51 59
430.978632 -17.910409 1257.782936 128 100 102
431.262684 -8.562299 1257.368565 137 116 119
430.832005 6.093467 1255.666256 109 86 96
431.328535 26.244873 1253.753567 110 84 97
433.434725 -29.088587 1244.334507 108 84 90
433.434725 -29.088587 1244.334507 108 84 90
436.466265 -99.350655 1258.195114 122 95 100
431.350327 50.398308 1250.933647 129 107 108
431.350327 50.398308 1250.933647 129 107 108
438.391256 -92.692608 1262.346268 35 23 27
431.200457 171.847057 1227.803326 65 46 51
441.465616 -77.644140 1264.934063 37 23 27
441.465616 -77.644140 1264.934063 37 23 27
441.465616 -77.644140 1264.934063 37 23 27
442.140007 -22.426787 1260.148335 37 24 26
439.579916 135.730791 1243.884850 34 22 22
439.659357 141.215801 1240.394783 44 32 38
445.847654 26.951540 1259.715557 42 29 36
445.644474 49.530175 1253.034019 126 104 104
445.977640 57.730401 1257.684708 44 28 34
445.977640 57.730401 1257.684708 44 28 34
450.425196 49.445090 1247.147560 122 95 102
454.751396 -140.224075 1274.001312 198 162 149
444.319630 133.274424 1242.592430 106 86 91
448.867369 63.837314 1250.234604 123 99 110
450.703859 52.438802 1255.863857 37 27 31
458.471107 -125.006294 1277.978420 190 160 142
447.612238 155.664170 1239.730453 119 101 118
452.176571 109.230280 1250.001431 86 58 54
460.464239 116.680253 1259.046459 90 53 52
463.126898 65.926290 1272.467518 197 166 152
463.537741 87.391210 1268.229580 207 175 166
462.721586 107.593071 1261.417007 121 71 62
467.408085 16.433452 1280.406857 217 180 166
470.244598 -29.098335 1285.892868 49 35 33
464.951849 101.717973 1265.635490 255 239 236
464.951849 101.717973 1265.635490 255 239 236
464.997339 114.171970 1263.294983 254 237 233
467.823982 94.962186 1272.759819 128 101 103
476.717567 -44.899917 1298.958683 213 175 164
473.674917 51.392120 1279.037189 206 174 162
487.021637 223.617005 1149.878502 61 79 51
514.572716 -95.939195 1348.313999 171 140 129
514.572716 -95.939195 1348.313999 171 140 129
524.645138 -240.973926 1380.417538 208 173 163
493.081236 219.051170 1156.928921 103 76 65
531.654501 -311.017728 1387.668896 231 192 177
532.865810 -262.110209 1386.350155 205 172 159
516.982174 167.562020 1328.328800 190 159 150
528.621912 27.625462 1354.978275 205 174 158
527.515316 125.248301 1345.156002 199 169 158
548.139286 -294.563651 1401.877880 147 119 129
537.580538 77.354974 1371.859264 202 168 158
538.962650 35.775560 1366.835213 175 137 123
541.136312 106.379342 1359.581852 125 100 118
542.297173 134.123790 1360.536671 116 96 114
538.020039 209.422159 1337.903595 136 113 106
560.180998 -239.059854 1406.959343 99 81 81
564.301348 -228.219795 1413.469696 186 153 140
571.473455 -268.889141 1457.592106 50 30 40
567.735434 -238.470674 1417.301178 106 86 82
553.642988 70.501071 1378.544807 149 126 114
553.642988 70.501071 1378.544807 149 126 114
564.442492 -131.073320 1414.790916 147 116 113
551.260471 236.253142 1353.631306 55 35 37
567.329311 -13.091126 1403.180122 120 98 104
568.075609 -19.376804 1403.699684 147 125 122
568.075609 -19.376804 1403.699684 147 125 122
569.826603 -16.615552 1402.339649 38 20 30
570.324087 -21.720701 1403.841591 32 16 27
557.476139 240.099955 1360.958099 65 44 47
564.825964 213.595700 1371.639538 121 99 81
585.595274 -125.268936 1436.903477 190 157 143
608.707333 36.648172 1642.085648 97 81 76
590.531683 -204.104924 1447.929001 148 107 105
590.531683 -204.104924 1447.929001 148 107 105
567.898130 229.035258 1375.232029 149 131 122
610.468054 84.676063 1641.164780 88 71 80
571.854496 212.856889 1382.032871 69 51 45
570.481205 234.134936 1375.779247 143 128 121
570.876646 231.528521 1376.660061 93 69 68
570.622683 237.495923 1375.315094 89 66 70
611.214542 42.408872 1629.510307 95 77 85
611.940384 113.426924 1642.360878 99 78 85
613.436270 154.440248 1641.855812 95 73 78
617.824697 37.398183 1645.394897 41 28 31
599.864817 -220.173550 1458.128262 159 126 116
612.535763 174.748766 1634.877014 105 85 81
596.397305 -116.618717 1441.894054 94 64 58
599.630213 -129.090333 1449.453163 99 63 68
614.719725 211.585259 1626.134682 114 93 91
624.107170 23.551764 1650.134087 112 96 94
-44.596112 -288.538718 776.053286 186 157 150
-108.165908 -49.994448 829.617405 24 19 22
-42.275903 -278.628683 775.300312 136 109 113
-40.536371 -279.915428 776.042938 140 109 106
-111.368656 -18.908855 842.038155 28 16 9
-106.146729 -43.326202 839.246273 30 21 21
-103.300107 -48.465365 841.827869 23 17 19
-103.902161 99.796903 850.405693 86 73 68
-5.335595 -191.302681 788.140821 70 52 52
-5.516530 -263.473344 811.718750 183 148 135
1.599151 -280.854893 815.418243 185 154 143
7.710835 -277.808356 819.054985 67 47 48
3.889219 -297.393012 824.909401 114 89 97
3.889219 -297.393012 824.909401 114 89 97
16.033392 -187.726307 805.506229 81 69 85
16.443500 -212.406468 819.117737 60 45 51
14.998789 -226.911068 822.670078 54 40 43
17.837434 -270.870876 829.141426 17 17 17
29.729125 -284.498978 837.320709 17 18 18
29.884741 -309.081340 851.053619 169 140 135
-44.844079 29.553360 927.591610 44 23 14
38.557312 -267.559266 847.637367 51 38 44
38.680375 -263.020754 847.860527 48 34 39
38.844332 -273.532510 848.443985 123 107 127
38.857657 -258.496499 849.633694 100 87 103
41.849846 -249.237299 847.313499 103 82 94
